ply
format ascii 1.0
comment PCL generated
element vertex 1531
property float x
property float y
property float z
element camera 0
property float view_px
property float view_py
property float view_pz
property float x_axisx
property float x_axisy
property float x_axisz
property float y_axisx
property float y_axisy
property float y_axisz
property float z_axisx
property float z_axisy
property float z_axisz
property float focal
property float scalex
property float scaley
property float centerx
property float centery
property int viewportx
property int viewporty
property float k1
property float k2
end_header
-1.452075 6.6292944 14.652578
-2.0878921 6.2149596 12.081748
-2.7172666 5.2967486 12.363183
-3.1372597 5.1233907 14.318789
-3.2676818 4.6471181 17.220741
-3.0422795 4.8995457 15.812232
-3.5660083 4.0501833 14.528777
-4.1332045 2.7758031 16.204842
-3.986537 2.7835665 18.649054
-3.872503 3.5293841 17.450253
-2.7726898 1.0926936 19.86824
-2.7405815 -0.22672641 20.048872
-2.7704232 2.7776279 20.24062
-4.2557793 1.7847011 20.142818
-3.6701043 3.9675121 20.185591
-4.0581169 2.5317068 15.062617
-3.6242747 3.7164516 18.808268
-2.8234549 5.0549617 18.526764
-2.2090666 6.0900669 18.791189
-0.78024399 6.9451876 18.448349
-0.32488209 7.4509468 19.900661
1.7369148 3.4173298 20.062859
2.9265189 4.1061325 19.8111
0.65868533 2.441 20.195641
2.2775331 1.3915553 20.327305
6.0154729 3.1306272 20.011255
4.3043079 3.4710557 20.025187
2.8041444 0.17036855 20.145367
-0.25321746 -3.4764152 20.229475
-0.79407012 -5.1285667 19.826241
0.68445778 -4.0189829 19.866369
2.385432 -5.766283 18.736555
3.1931911 -6.0095024 17.713243
4.6545072 -5.683619 16.186783
5.1994801 -5.8556395 15.161321
1.8412347 -5.9862542 20.091963
8.0414505 -1.7875688 20.034336
8.9300442 -2.2965188 20.200113
8.5262175 -2.9233291 18.806183
9.1967134 -1.6965342 18.8927
5.2219043 -0.5341444 20.019156
4.0511761 -1.8839633 19.96188
2.8156571 -1.6412933 19.928339
7.0757823 4.365901 20.082674
7.9994035 3.1101074 19.803535
8.4962845 2.2240448 19.962488
8.8239946 4.5460148 19.800842
7.1445827 6.5214891 20.173916
9.091526 3.7364609 19.036121
9.7314644 2.4549756 18.661846
9.6978693 1.6712676 19.82728
9.843751 0.24763888 20.413683
9.5776052 -0.31622434 18.578281
9.6093102 -0.98962891 17.34037
8.5756035 -2.9842558 15.674092
8.0354862 -3.6590841 17.183372
7.4313931 -4.3208742 15.954622
7.6311874 -4.1730819 18.521185
6.4298224 -4.6165104 18.710293
5.5569363 -5.4052672 17.217102
6.113368 -5.3157482 15.898713
7.6012545 -4.4266644 12.111898
6.9347143 -4.8785467 13.671373
6.4533634 -5.0305018 14.807841
9.7130928 1.3101649 11.120654
9.3162909 -2.1208787 12.24267
9.3545904 -1.174165 10.95337
8.3704014 -3.2745731 12.143528
11.241022 -0.84325379 11.066876
12.882218 -1.2255256 11.12698
11.008998 -1.8912249 11.151197
9.5278063 -6.0271182 10.891376
11.261823 -3.4058895 10.883456
12.9368 -0.81127596 9.8194866
10.847446 3.5841722 11.038389
12.614261 4.0666385 10.895504
11.632192 4.7670984 11.043273
12.768165 6.7829723 10.997385
11.469498 7.9459963 10.815157
12.828142 7.2740693 10.047643
12.853711 6.165309 9.5536776
12.597967 8.5863609 9.5899372
10.088155 11.107667 10.801223
10.94267 9.6239862 10.746476
12.935211 9.5920963 10.86843
12.875212 9.4622669 9.7751179
12.480872 9.7841797 8.5380259
12.849014 11.306587 10.831405
12.915085 11.094001 8.1386223
11.819623 10.700281 8.5824747
11.413193 10.825343 9.7794218
8.4812708 10.994841 9.6732025
9.5958862 11.150682 9.889657
9.1714096 11.068782 8.6105108
10.269137 11.100539 7.3546534
11.617286 10.766174 7.3477468
11.182795 11.208968 6.1523595
8.6024656 9.5568123 2.2780466
8.6139755 10.996785 2.8940008
12.456693 11.037538 2.3563728
11.617651 10.99161 -0.66263688
9.0048037 8.3443842 1.5202575
8.4102573 6.9288616 1.851217
8.5470467 6.5003071 3.2732148
7.5139732 6.9408956 4.8073497
5.9587412 11.195198 5.9489617
7.2323666 10.995605 9.871603
7.0256667 10.851011 8.5311308
5.7901301 11.217173 10.034803
6.0100656 11.00972 7.5423379
4.85746 11.0775 8.0210886
4.4379635 11.102234 9.9299393
4.0089002 10.971678 6.8759117
3.744381 10.843293 8.2421646
3.5539362 9.8315506 7.14082
2.1439238 9.5440397 6.9475036
1.7149539 10.740694 6.8509932
0.63280517 9.6629009 6.5204511
3.0440741 11.148421 9.7997875
1.7569017 11.077676 9.6405954
2.1671324 11.059592 8.4827366
0.44843572 10.902073 9.6350946
0.87983775 10.995558 8.3536234
-1.1462586 11.097202 9.5540981
-0.19938886 10.875239 6.1154208
-0.12371695 10.993097 7.5567727
-1.7813275 11.101935 8.5741663
-2.422112 11.183618 9.7671175
0.37419379 8.2732267 6.4606848
-0.34412944 9.5143356 5.8249865
-0.54990005 4.5080571 6.0951967
-2.0932193 4.2561569 6.2675409
-0.531147 2.8813863 6.7106581
-7.3160405 3.8367202 6.4329152
-5.7009044 5.1867785 5.4226608
-5.7408195 4.3396854 6.1246371
-5.7649908 5.7942591 4.4507523
-3.1812074 2.9780107 6.8641825
-3.2924664 6.3697782 4.1526895
-1.7848456 5.8383479 4.6894493
-2.0388417 7.383872 4.5460372
-2.5829349 9.561758 3.8314872
-7.2360148 6.8579311 1.3768005
-7.2862496 7.2069049 0.23361057
-7.3736882 9.6722393 2.7857881
-7.3322043 10.899262 2.1642094
-7.120862 9.901022 1.3242178
-7.1847749 8.3464098 0.7220248
-7.329988 7.7211971 6.3580236
-5.6414876 6.9817305 2.2777848
-4.8658929 6.2029219 3.8063819
-5.7153358 6.73737 3.2766027
-7.4541817 6.8980474 7.3100629
-7.1965995 5.251575 7.0496516
-7.0915413 4.1534376 8.1365156
-5.8949218 1.3022366 7.0164404
-5.9143052 0.37914002 7.0668211
-4.3865862 2.231091 6.7205315
-5.8161068 2.6813605 6.8240595
-7.4931803 1.2750959 8.4603071
-3.1735382 1.8524799 7.0106282
-1.665517 1.1444505 6.9123588
-0.69581634 1.8132901 7.0374546
-0.92369902 0.43801975 7.1394649
0.52522194 2.0858672 7.0118165
1.8665011 1.3575122 6.9000111
2.819217 0.66363615 7.1777468
1.6193842 0.22447258 7.0181532
3.6557949 -0.01333493 6.7834363
4.7851233 -1.2137806 6.6172199
3.6509242 -1.386646 7.0281487
6.0348949 -0.4748233 7.0321999
7.3621588 0.046532333 7.1670661
7.0626659 -1.2366728 6.6667628
12.502942 4.7431073 7.1638212
12.689264 4.5867319 8.9295769
12.819168 4.4449353 9.722559
12.724516 3.376245 9.5039024
12.798526 0.20054221 8.5342941
12.75844 0.74305475 9.5968008
12.78007 2.2344222 9.6039019
12.731222 -0.50489938 6.8246989
12.772088 -4.0786729 5.9460869
12.683291 -3.8426874 4.6413593
8.7469788 -4.8357997 0.50549394
8.5038242 -6.330574 -0.4654572
10.2986 -9.2466707 -0.35211062
7.7182493 -7.6946411 -2.5660064
7.2805209 -6.0931811 -3.0430441
5.000443 -6.6649117 -4.8951678
4.5000825 -7.9101558 -4.8247957
6.4270048 -1.0856742 -4.7748013
6.0449939 -2.3379598 -4.0855618
6.7089314 -0.0029176474 -5.0611663
4.4182329 -5.1096916 -4.9985518
5.6395483 -5.2933612 -4.212245
-3.3501246 0.52292562 -4.8819337
-3.3106618 -0.23411036 -4.7082233
-1.9059563 0.28676409 -5.4170923
-3.0564632 2.1409705 -4.876606
-1.8516926 2.9435689 -4.98212
-3.1355469 3.388541 -4.2557964
-6.0056858 2.4122956 -4.8975286
-5.8200903 0.94675177 -4.9926863
-4.3408613 1.7365959 -4.7086077
-6.0723624 3.5810328 -4.4537454
-6.9962978 2.2840996 -4.5730743
-7.1241455 4.32511 -3.7353876
-5.9190297 4.8600702 -3.6018987
-7.2517242 4.5788021 -5.3762093
-7.1487947 0.36864239 -6.2208605
-7.179791 3.3034196 -6.4172044
-6.935853 0.064313352 -5.0106382
-5.7226896 -0.2761879 -4.511735
-0.7833907 5.984406 -3.6002326
-1.5531459 5.2781286 -3.0253639
-3.2676649 4.7912903 -3.947757
-4.645503 4.0821009 -3.7550581
-7.142602 6.3572769 -2.0270655
-7.3121939 8.1198368 -2.1944566
-7.333436 7.9082279 -0.86928302
-7.1301231 8.6264181 -5.0505219
-5.5696325 9.609127 -9.2004366
-7.199141 9.6330204 -8.8951797
-6.2963419 10.998652 -8.9241018
-5.8297539 11.236332 -7.6263709
-5.460134 11.370533 -6.4700298
-1.7069675 10.945927 -4.8884535
-2.5681639 11.007543 -6.2709312
-3.5466199 10.803635 -5.0498066
-4.654552 11.05841 -5.126339
-2.7784176 11.257407 -3.7835493
-0.43554366 10.71207 -4.2012529
-0.56646371 10.949922 -5.3648219
-1.1415973 9.368432 -3.3367639
-0.01203984 9.6416588 -4.5988388
1.2801211 9.8641682 -4.7366576
-3.5534449 10.783337 -2.8825014
-2.0761254 10.937421 -2.4730041
-6.1289639 11.129666 -5.0764694
-5.4840288 10.877579 -3.8624341
-4.7836227 10.915287 -2.8125641
-6.1110044 11.135731 -2.7700396
-2.3616152 9.2809086 -1.5957859
-1.9901069 9.6727219 -2.7483833
-1.6474938 8.5496502 -2.9689634
-1.5351614 6.8962998 -3.2898507
5.3036809 1.0396847 -4.8384895
5.6444693 3.5842111 -4.2313199
6.3097467 4.3463969 -3.6442342
6.8701911 5.3087282 -3.3061423
4.5625381 4.1709037 -4.8019161
1.7780023 11.061094 -4.9975142
1.0206113 11.034505 -5.7323184
-0.0045102835 11.01315 -6.8947692
1.5036961 7.9542828 -9.0488415
2.7408926 9.6264982 -8.8171978
4.3942022 7.5875626 -17.79784
2.889204 6.7592282 -17.820299
3.2358599 8.1394024 -17.899023
1.6843475 6.5310235 -18.164999
0.60821301 4.5938826 -17.897152
-0.88171399 5.2897835 -17.977633
0.33926111 6.3120904 -18.01013
-1.3260722 2.9820731 -18.064087
0.37975371 3.2796686 -17.968681
-1.3924307 6.7558427 -18.156281
-1.779673 4.3991046 -17.827814
-2.5996685 3.3584805 -18.180416
-0.81838346 6.7777615 -16.800518
0.22108048 7.7197647 -16.768181
1.5276814 7.6536527 -16.836039
0.78784704 7.4625821 -17.72246
3.2353287 7.949614 -16.735508
2.4066124 7.9685316 -15.054633
3.3962059 8.015255 -13.064557
5.2090054 7.5014586 -12.727209
1.4558933 7.9772558 -14.036057
2.2367439 8.0748472 -13.028997
0.086912632 7.4581952 -11.663367
-0.56927836 7.1185336 -13.242859
3.016923 7.8287339 -11.758389
4.2137985 7.5733142 -10.248896
3.133528 8.0717287 -10.383478
1.440681 7.6003351 -11.644465
2.4203706 8.011385 -9.0559216
0.66548342 7.409894 -10.215581
0.21851289 7.5579429 -9.3724604
-0.50252402 7.244103 -10.394123
4.222333 9.334136 -8.8296213
7.3806109 10.866024 -8.0935116
5.3029647 9.7737446 -9.0594254
4.3586016 7.9518204 -9.2092857
9.164875 9.6818142 -9.1530027
12.680862 1.4254198 -8.9781752
11.343701 3.893713 -4.2298708
10.069351 3.2415876 -4.3361406
9.1451349 2.8539295 -4.5501537
6.2749228 -3.9410143 -4.018424
7.1196876 -3.0573969 -3.1924534
6.8006139 -5.0321922 -3.5020928
8.4236689 -4.2258639 -1.6451638
7.7450652 -5.3737879 -2.3464787
9.0258732 -3.9608974 -2.5195296
9.6276703 -4.2140903 -1.7369931
11.149494 -4.4200139 -2.0279894
11.339844 -4.9928603 -0.86463046
9.9898167 -4.9171185 -0.40967834
12.688565 -4.3707113 -1.7212315
11.56771 -5.0242882 0.45590913
12.644655 -5.1169939 -0.15433156
12.788039 -6.4471388 0.60231465
12.487422 -7.7778416 1.32628
12.852259 -6.5044188 1.969901
11.250308 -8.9809465 3.4748197
8.6649733 -6.5192494 2.1798406
8.4810343 -7.8202734 2.9855108
8.390461 -5.8387213 2.964237
7.9802895 -8.9255562 3.8716159
8.482378 -8.9880848 5.1213694
10.01482 -8.8704109 5.7569399
11.385248 -8.7924013 4.7689018
12.829241 -6.5742865 5.0863061
12.699603 -7.5737076 6.5855484
12.486125 -6.1657934 3.3701029
12.982018 -5.2713604 4.7658358
12.755222 -7.8905902 8.1950808
12.935688 -7.4843006 9.5065937
12.617941 -8.7778769 9.8232031
12.732157 -4.785111 9.6647816
12.49952 -3.9611061 11.033481
11.566514 -4.6172018 10.968151
11.306419 -9.0851049 9.7018414
6.5928931 -7.6420708 10.83096
5.107028 -7.0855565 10.724996
2.8797319 -6.1678891 10.902618
-1.4642541 -4.4688406 15.838309
-1.1652515 -4.7630792 13.345368
-1.4781262 -4.6832061 18.471107
-2.121089 -4.087738 17.287708
-3.5988529 -1.9217507 16.765488
-2.4248958 -3.6769309 15.552761
-3.3944061 -2.8154998 15.53938
-2.9474435 -2.8996038 14.059505
-3.377064 -2.1320004 12.571689
-4.0678434 -0.86509788 12.565556
-3.6702609 -1.4718544 11.287814
-4.2457905 0.22016865 12.729473
-5.3161726 -1.2176902 11.169296
-6.120697 -2.4393175 10.759129
-4.1261673 1.0737907 10.901395
-7.2269692 4.6425247 10.951455
-7.3068275 3.496558 9.7479496
-7.3935533 2.9287605 8.4221621
-7.2745256 2.2145576 11.169931
-5.6840773 1.4299244 10.722025
-6.0545936 0.14019227 11.00445
-7.0056515 -3.1453137 10.759387
-7.1898565 2.3388247 9.5990562
-5.8346338 -0.98689246 6.30197
-5.8963566 -2.470041 6.0391455
-4.4271917 -2.7901292 5.4503722
-3.3688879 -3.9147561 4.868926
0.18608737 -0.54241097 7.0240984
-0.75614601 -5.2555199 5.6954041
3.9217758 -4.1351662 6.8883047
4.52703 -2.5566859 7.0314178
3.1605434 -5.1766586 7.0126486
2.532985 -6.447186 7.2438869
5.2191272 -6.1174464 6.4162397
4.7578192 -5.202692 6.8025804
5.8258729 -5.0834646 6.1885309
7.75244 -2.7003536 6.0627027
5.6516838 -7.4660034 6.3692265
4.5037589 -7.6135869 6.7357402
6.3220134 -8.9050455 6.0463605
6.138598 -9.0460176 7.6821375
4.0326443 -9.2954073 9.4336433
3.6704459 -8.8791275 6.8188114
4.7227092 -9.2119646 8.3090324
3.2576716 -7.5008626 7.0916724
4.1395254 -9.1011677 10.928098
3.6912034 -7.4248629 11.133783
2.511924 -7.3979797 10.952409
1.3913901 -8.878294 11.093995
0.96873558 -7.2619433 10.925001
-4.7727942 -8.8429422 8.3670692
-5.4235678 -8.9702244 9.5630913
-4.0657544 -9.1489782 9.2790709
0.92534518 -5.6695309 11.0382
-0.22804451 -7.3892999 11.002848
-0.59605414 -5.0699968 12.473488
-2.6540804 -5.3216319 11.027874
-2.7226839 -3.3647797 12.540895
-3.2408834 -2.5447416 11.05502
-5.5770826 -6.319973 11.026925
-7.203692 -7.9022379 9.5054102
-7.0693922 -8.8308792 9.5308828
-7.0590224 -5.5019059 4.4166131
-5.9557009 -4.0217524 4.0264964
-5.7523541 -3.3823771 5.0825419
-6.115334 -4.7098131 3.2486844
-7.0991783 -4.8672333 3.121078
-6.7660966 -4.8220787 0.61197448
-7.3454437 -6.1028428 -0.22686028
-7.102108 -6.178894 -1.7730399
-6.991787 -5.1511121 -2.875917
-7.0943956 -4.6410627 -4.2832985
-5.6262574 -4.9891167 1.4868619
-7.4056249 -4.9469824 -0.68215239
-4.4756231 -5.1720963 0.82759804
-3.2173543 -5.287158 1.5976262
-4.7003355 -8.9980907 5.4777966
-5.7994003 -9.0827141 5.0749407
-5.9242043 -8.7047062 3.5187302
-3.229732 -7.5182757 1.7257705
-5.8637028 -9.1486969 2.1818619
-7.1975403 -9.0116329 1.2500492
-4.4986901 -9.2341528 1.2479008
-2.9625115 -9.0820122 0.045883775
-5.9683843 -8.9733849 -2.8167465
-7.0967155 -5.0331388 -5.638361
-7.2339368 -5.3947821 -7.6532454
-7.2403922 -3.7371569 -7.7641325
-7.3397002 -5.5098562 -9.0158033
-6.8681073 1.3379724 -7.7954249
-7.1492953 -0.15200555 -7.855535
-7.1207819 2.9556997 -7.4579973
-5.9918776 3.9721653 -9.1367235
-6.3397884 5.8763933 -9.2240601
-6.9127584 4.8027267 -6.5565491
-7.2509403 7.6536741 -8.8804932
-5.8021793 7.2286415 -8.9555111
-4.1997323 9.6128902 -8.9511976
-2.0806742 11.116333 -7.4479446
-0.84234583 11.007439 -7.6165581
0.60967147 10.917001 -7.5727601
0.62385339 10.965629 -9.2662106
-3.6064911 5.7486434 -9.0820456
-3.2733679 4.8218193 -8.6944799
-4.890851 3.3385406 -8.61269
-2.7919388 7.1782613 -9.0941353
-1.9528618 8.1148453 -9.0365753
-1.820405 6.3060131 -9.004817
-0.58223784 8.4683304 -9.1289759
-0.17705154 9.5636654 -9.0505209
-1.630034 6.1295033 -10.354519
-2.1309001 5.9302387 -11.239972
-2.4882944 5.3361092 -10.315021
-1.6134017 6.2154365 -12.752955
0.13614833 7.4251003 -14.097216
-0.3080461 7.1655059 -15.413997
-4.0394301 2.4101782 -17.996187
1.7733117 1.2239045 -18.053286
-0.49889076 -0.028746724 -18.099306
1.4350345 3.5637472 -17.974339
2.2579403 2.4359462 -18.045567
5.1691241 6.5008407 -18.038279
5.0596819 5.2622252 -18.066763
6.9600782 1.2144607 -18.156664
4.3278322 -1.8510946 -18.114267
7.3189373 -2.7161992 -17.852316
8.5130157 1.0645498 -17.805754
7.1558208 4.5490699 -17.984743
6.6436005 5.5804729 -17.933704
6.2334833 7.0340381 -15.394701
6.747807 6.6542091 -13.945053
6.3432016 7.1365905 -12.910362
7.3482695 6.1062646 -12.848539
5.8452907 7.3458247 -11.87759
7.5110793 6.41049 -10.249125
6.4068713 7.0593386 -10.360303
5.2139034 7.7084455 -10.113708
7.9408951 5.8265557 -11.439503
8.3790035 5.0029168 -12.250293
8.9144993 3.7667589 -11.81905
9.9217157 1.6420841 -11.633062
9.235734 3.2721598 -11.267927
11.145773 1.5832134 -9.1479034
10.685598 -2.5375123 -9.0256033
12.583271 -0.42751706 -9.1049118
9.147789 -1.4843771 -9.9517574
9.6317577 -0.8954612 -11.50507
9.6662731 0.19597912 -10.252023
9.5996408 -1.1668131 -12.071018
9.6692295 0.32278293 -12.483333
10.012352 1.6552973 -13.166057
9.4634562 0.37489855 -14.401302
9.5294762 -0.6931597 -14.83709
9.1140079 -1.6427835 -13.512213
8.8157263 -2.5230737 -14.495681
8.3315763 -3.4897933 -14.194954
9.0030909 -2.3003066 -12.503399
8.8994408 -2.401372 -9.0540066
11.364716 -3.9560556 -9.041564
9.6672153 -3.3571391 -8.8998222
8.6576405 -4.8659182 -9.2079
8.8717117 -2.916791 -3.7429731
9.8674307 -2.3296759 -3.849103
12.825449 -4.293488 -4.1718407
11.786072 -3.5966787 -2.8062708
12.881506 -5.3525724 -4.4675035
12.709242 -5.018311 -3.3047872
9.6424465 -9.0804491 -1.7840997
12.92791 -7.7354131 -9.026988
11.306858 -8.9932232 -7.5137734
11.560207 -7.8450518 -8.9454136
10.080971 -8.819356 -7.4316874
11.126279 -9.2024689 -8.7778873
10.037554 -7.5583568 -8.9312363
9.535121 -8.9294748 -6.5265369
10.988031 -9.075016 -5.858882
7.8366036 -8.9962978 -4.6575861
6.6749701 -9.0533361 -5.7096367
1.8224249 -9.0098944 -6.3128252
1.3062334 -9.0216856 -4.9178295
0.056994915 -9.1405859 -6.2371464
3.8518848 -8.9484959 -4.911293
0.016851366 -7.8122163 -4.2952499
-0.88851595 -2.8003318 -4.0459394
-0.89787459 -4.4459605 -3.4225998
-1.2668089 -6.0585861 -3.3563805
-2.1466041 -5.0899115 -3.0543413
1.5337839 -2.4455807 -4.95748
0.60618734 -1.3805742 -4.6514168
-0.78159392 -0.34202981 -4.962883
-0.62671292 -1.3961229 -4.6562462
-4.4696507 -0.779984 -4.3194032
-3.48772 -1.5858483 -4.1676722
-4.5284052 -3.0927515 -3.4510579
-3.1087785 -2.7441907 -3.5444765
-2.2801914 -2.391603 -3.8417425
-3.2047105 -3.7239094 -2.5341444
-4.3294916 -4.1639519 -1.6252897
-2.5333796 -4.4329896 -1.9228475
-5.5858946 -4.2609034 -0.97132409
-4.679718 -5.1851344 -0.37773794
-3.1918025 -5.1947393 0.33475304
-3.5245388 -7.6662931 0.17899984
-0.48146653 -6.7896938 -4.1529422
-1.3255529 -8.8455143 -5.0375853
-5.1287627 -4.9050517 -8.8642588
-7.3238254 -1.3865869 -7.7469969
-3.9868841 2.3597791 -11.804622
-3.0901132 4.9025402 -11.243992
-3.6002321 4.1185102 -12.928889
-3.6096194 3.194207 -13.934027
-4.0645595 2.9179068 -15.49299
-3.8969855 3.1265445 -12.431372
-3.7139187 3.3922265 -16.53952
-3.970531 1.4118814 -15.358933
-4.0829773 1.5032434 -12.814375
-3.3627629 -2.4951117 -8.8396873
-4.3699713 -3.6379962 -8.8959808
-2.2348852 -3.52143 -15.529959
-2.374387 -3.6479058 -16.792734
-3.1256526 -2.8079171 -15.13171
-3.8955801 -1.4155381 -12.820374
-3.4361815 -2.0928416 -13.848438
-4.0961199 0.12466967 -12.689386
-4.1498871 0.76566541 -14.131009
-3.9369206 0.72169805 -16.76465
-4.1603961 -0.069745779 -15.260599
-4.0554605 -1.5095323 -15.351637
-2.9289703 -3.1361976 -17.9013
-1.5693824 -2.7636175 -18.012939
-0.36276567 -3.5334287 -18.223394
-0.85523331 -1.1881734 -17.764929
0.32658041 -1.0666522 -18.350231
2.5312533 -2.3386285 -18.251755
0.41676134 -3.2176068 -17.727892
1.0746244 -2.1692622 -17.921099
0.77109951 -4.4145594 -17.898649
4.0138016 -2.7044735 -17.964468
3.0164857 -3.7848873 -17.778191
5.2027826 -2.8083305 -17.983915
4.8831015 -5.8567152 -18.090391
5.3664236 -4.1308413 -17.752377
5.7674179 -5.3151355 -18.192299
3.9854486 -5.5892291 -15.450271
5.693069 -5.4255452 -15.59644
4.724473 -5.7499537 -14.135738
6.2720799 -3.3797896 -17.905449
7.9001722 -3.4551885 -17.833149
7.4759717 -4.2935238 -8.9380007
4.2034597 -9.1271152 -7.9996772
5.1825085 -9.1278296 -9.1208992
2.7123351 -9.1023331 -7.7427974
1.0974104 -8.8249369 -7.5618649
-4.106317 -8.8481884 -8.9713192
-3.3612661 -7.5695734 -8.9883261
-1.881416 -7.8087091 -8.7487488
4.0100355 -7.7321272 -9.0068731
5.448504 -7.5047359 -9.0262871
5.2504544 -5.5909791 -9.0193167
4.2373352 -6.0398526 -10.314859
-0.2701695 -5.2770739 -8.9082966
-0.082457483 -5.2523117 -10.266253
-1.2654995 -4.70046 -10.482231
-0.60075986 -4.8764005 -11.598629
-0.52044559 -5.1486268 -14.463868
0.46370408 -5.5483603 -11.90035
-0.043081045 -5.3239336 -15.036795
0.51530242 -5.6334648 -13.806228
0.43531367 -5.6278462 -16.448053
2.0578551 -5.8090649 -16.51947
2.666235 -6.2390637 -15.523612
3.1500664 -6.0829382 -16.704939
3.7764335 -5.6475811 -18.259531
-0.44221842 -5.2215743 -18.097153
0.091118217 -4.6131735 -17.974857
0.55129474 -5.1660972 -17.941216
-0.010518551 -5.5185127 -17.014093
-0.78730315 -5.2533851 -17.11895
0.84188777 -5.45439 -17.141956
0.35284555 -5.2725778 -16.632828
0.7932328 -5.4878473 -17.963943
0.68081641 -5.4622641 -17.525734
2.2876351 -4.0156274 -17.820515
3.1034462 -4.26999 -18.071117
2.5503139 -5.0498238 -18.083635
3.3572772 -6.2544603 -15.32402
3.2334857 -6.0566368 -16.232624
3.6761007 -6.1015906 -15.907078
4.7751689 -5.6312237 -15.718643
4.8655334 -5.5375834 -14.688734
4.5169458 -5.7085557 -14.690968
5.0169082 -5.6918626 -16.080709
4.4467521 -5.6169024 -15.988183
4.8188167 -5.7209167 -17.609922
5.4667253 -5.5648599 -17.49058
5.5952396 -5.49998 -16.531103
5.5642462 -5.1607008 -16.057177
5.7696066 -5.3426361 -14.64209
6.3312426 -5.1082139 -15.325074
6.3011827 -5.2648773 -14.960227
6.7942457 -4.9002395 -14.34671
6.8901329 -4.7607317 -13.4049
6.6269197 -4.9893112 -13.542436
7.3403969 -4.3818898 -15.098847
8.0265579 -3.8085132 -14.973746
7.5388103 -3.7344389 -14.008882
7.6296544 -4.338685 -14.926439
7.1711426 -4.348485 -15.634523
8.1518631 -3.6541867 -16.193951
8.4787188 -3.0152302 -15.966407
8.1372414 -3.5590746 -15.569938
8.8808641 -2.0023396 -18.158564
9.4796066 -1.732885 -17.365385
9.0788546 -2.5073099 -17.512478
8.4911098 -2.0532675 -17.804523
8.6883821 -1.2807559 -17.948397
7.753747 -2.4730551 -18.285809
7.6065831 -1.9761934 -18.190575
8.5201626 -3.1532669 -18.060591
7.5755525 -3.2117445 -18.201082
7.4073238 -3.3471732 -18.066027
6.9705882 -2.8582025 -17.942734
6.9531288 -2.023314 -18.171526
7.366189 -1.1591109 -18.351772
8.941946 -0.87193143 -18.108946
8.4886513 -1.0812297 -18.055819
8.0127611 0.5169301 -18.110533
8.4633036 -0.042849064 -18.246881
7.9286547 -0.38927943 -18.07077
7.2233167 0.67266923 -17.879791
7.8718405 0.84445363 -18.38851
7.0302033 -0.53229749 -18.00103
6.6246347 -0.5683642 -18.034443
6.8758392 0.042356968 -17.814428
6.8831043 0.59632593 -18.197691
7.6710033 2.2556486 -17.95664
7.9133329 1.8108999 -17.919704
7.274951 1.8152403 -18.278526
9.1304579 1.69592 -17.710751
9.3913527 1.0992972 -18.036346
8.6591539 1.4637442 -17.94034
9.6054678 3.2638242 -17.85606
9.2392178 3.5004091 -17.280649
9.5291414 2.9148583 -17.160614
9.7725611 2.5594251 -16.811401
9.6304092 1.9880137 -17.332321
9.6703081 1.5431764 -17.588608
9.7294197 2.1479759 -18.010532
9.6701574 0.79873234 -17.261532
9.7862864 0.94361323 -16.910437
9.7097349 0.138825 -16.131269
9.5821056 -0.70777345 -16.244211
9.457551 -0.26231223 -16.62981
9.8733683 0.35316563 -17.576595
9.7106934 -0.42007649 -17.232059
9.4097052 -1.4855473 -17.611486
9.7085257 -0.38527644 -18.071714
9.4627609 -1.5127944 -16.688019
9.1345577 -1.7556003 -16.325594
9.3825254 -1.3674897 -16.2479
9.3506346 -1.2097244 -14.929503
9.3664455 -1.7265108 -14.643059
9.2837906 -1.8484613 -15.038856
8.6793346 -2.4778738 -15.329456
8.8036184 -2.0489726 -15.491226
9.0676966 -1.5866331 -12.24731
8.9841309 -1.6351082 -12.724904
9.2711716 -1.4287417 -12.93146
9.5762196 0.049663663 -12.977553
10.018999 -0.1733315 -12.46027
9.4243326 -0.42749155 -12.758999
9.9075336 0.20218408 -13.885431
9.8603067 0.55945677 -13.031775
9.8552923 1.0574324 -13.51187
9.8042126 0.66058517 -12.755466
9.5384951 0.23089254 -10.389412
9.5750332 -0.42102665 -10.436543
9.6973686 -0.1627363 -11.300747
9.9197769 1.6693789 -10.89413
9.7590733 2.3197069 -11.709595
9.423872 2.1867356 -11.109496
10.222927 2.3589149 -9.2197714
11.317405 2.1206229 -9.0418701
10.742224 1.8515506 -8.9138393
10.491042 0.97582471 -8.7998772
11.21588 0.58380431 -9.1770992
10.255803 0.43694723 -9.1414423
10.571573 -0.059655309 -8.8241568
9.9384117 0.0076031089 -8.8686657
11.226885 -0.42122519 -8.9612226
10.617741 -0.68183446 -9.1435547
11.775563 -0.37718093 -9.1246557
11.907556 -0.97962731 -9.0504227
12.633486 1.2435248 -8.9666672
13.181307 1.4354823 -8.2020941
12.642229 1.1270467 -8.0628967
12.706357 1.1094372 -7.7929716
12.666552 0.47756958 -8.3138876
12.901895 -0.56220186 -7.9255729
12.717634 0.27752137 -8.931881
10.934515 -3.2871566 -8.990346
10.647877 -3.8475146 -8.888134
10.523088 -2.8295863 -9.0533981
12.660692 -1.4988101 -8.2033348
12.670408 -2.0925512 -7.2408147
12.800235 -2.2190542 -8.0894547
13.002924 -1.4971608 -9.2410212
12.737712 -0.84837294 -8.4630613
12.820244 -1.4039917 -6.774725
12.71353 -1.9195032 -6.4908776
13.030198 -3.6191502 -7.3908
12.879988 -3.1396923 -7.6837778
13.107109 -3.0381804 -7.3714681
12.827277 -2.5292604 -6.1327991
13.279385 -4.0992098 -6.8381419
12.759039 -4.1463213 -7.2962718
13.15951 -4.0272532 -6.0102305
12.909393 -4.8318987 -6.4880023
12.840698 -3.3839493 -5.9138632
12.805292 -4.0167856 -5.4709496
12.277189 -1.3501174 -4.3625798
12.18482 -1.905924 -4.5155268
12.782082 -1.5292225 -4.5281334
12.087117 -0.4201839 -4.6511192
11.566244 -0.86699808 -4.6990585
12.909133 -0.34241819 -4.8440123
12.32688 0.042710841 -4.9365516
12.897509 -0.81017643 -5.4404345
12.823979 -0.065003157 -5.4271483
12.875311 0.82705808 -5.8166075
12.300093 0.072745144 -6.1529074
12.86575 0.77302766 -7.0561037
12.842681 1.3509862 -6.8596115
12.620126 1.9422189 -6.7013321
12.987329 1.7204877 -6.5226841
12.584626 2.2569668 -4.9414253
12.548759 1.8398373 -5.7634945
13.110044 2.6156795 -5.5110836
12.838028 3.0090146 -5.3080864
13.004107 3.9298754 -5.0759397
12.75489 3.2663786 -4.4532452
11.917435 2.6312871 -4.61654
12.156104 1.9575965 -4.8483586
12.201984 2.9466121 -4.7305799
12.021502 4.0395885 -4.1095915
11.4499 3.156189 -4.5452318
11.049953 3.5732372 -4.5223694
10.914047 2.9235487 -4.5500212
12.067238 4.4110451 -4.0951118
12.855792 4.3771844 -3.8959632
12.752008 5.1140804 -3.3029962
12.040501 5.3533602 -3.045856
11.97413 5.0922942 -3.6155362
10.851851 4.871119 -3.4176612
10.833088 5.5172162 -2.9126806
10.626228 4.9079213 -3.2587466
9.848033 5.6775675 -3.0483584
9.3625746 5.0218239 -3.4316776
9.3183403 4.5795984 -3.6371667
9.6814432 4.4905162 -4.1263895
8.6662369 4.8929205 -3.5117157
8.739049 4.2902007 -3.8683953
9.8988361 5.9605036 -2.1212573
9.2350512 5.5228896 -2.5375576
8.3893347 5.5006552 -2.7246075
8.4992123 5.9959774 -2.575999
8.8127804 6.2937613 -2.0450065
8.0108624 6.0615759 -2.3008728
6.8721876 7.553175 -3.7033043
7.0960274 6.9452505 -3.3356771
7.0793028 7.6957326 -3.0411248
7.6575313 7.6034455 -2.6486013
7.1618266 8.2144432 -2.9272029
7.0223188 8.9999456 -3.3073289
6.8183031 9.6924238 -3.6310995
6.632781 8.6148853 -3.8257518
6.0462217 8.9169931 -4.0437713
6.0832219 8.1020851 -4.0072198
7.1836438 10.870919 -3.4297578
7.4600487 11.063106 -4.5776424
6.7641292 11.051356 -4.7058105
7.9926667 11.147587 -2.1490259
8.4185295 11.232171 -2.3969722
8.5236416 11.000066 -2.928432
7.3988857 11.022845 -3.2664001
7.1623874 10.894503 -3.1718729
6.9907684 10.171238 -3.5417328
7.2405181 10.223071 -2.6914048
7.7249355 9.8487492 -2.3878822
7.5654736 10.171267 -2.338382
8.0665321 10.238836 -1.9869125
9.5556316 10.8353 -4.3250546
8.8489885 10.929247 -3.8846536
9.4848061 11.02813 -3.299058
10.839216 11.020845 -2.6498446
11.49444 11.025023 -2.4966073
11.083851 11.086143 -3.0033562
10.195671 11.050756 -2.0814362
10.94733 11.511348 -1.7275622
10.698345 11.047544 -1.0594478
11.434327 10.748236 -1.3921144
9.3020687 11.055806 -0.38182402
9.6925907 11.064816 -0.57507885
8.9871168 10.976383 -0.97410262
8.7631168 11.125516 -0.10292846
9.6896448 10.965065 0.1412425
8.4725494 10.329723 -0.60767567
8.6754913 10.233669 -0.38264894
8.8231297 9.4740858 0.096258938
8.662303 10.367261 0.52103055
9.5377483 10.946709 1.1977749
10.143877 11.174781 0.61468512
10.81605 11.030561 0.20827043
10.834434 11.043181 0.96507955
11.683029 11.124139 1.3938729
11.890259 11.024885 1.2342738
12.300404 10.89629 0.96410549
12.60907 11.408533 0.45962808
12.291373 11.036125 0.4675616
11.942374 11.216092 -0.36340809
11.415535 10.874377 -0.23990583
12.300677 11.046077 2.3680463
12.61644 11.131438 2.3029795
11.551454 10.787206 2.7545714
12.236518 10.938819 2.8904619
12.603177 6.8526425 3.8349807
13.104986 6.923893 4.0272017
12.734994 6.4343209 3.5501618
12.846546 10.248544 5.63133
12.854965 9.5049534 5.1846323
12.966375 10.384542 5.0327954
12.13166 11.187017 4.7546501
11.6334 11.180418 5.1979136
11.795423 10.972114 5.5428185
12.156839 10.889763 6.2945852
11.650089 10.996142 6.8164244
12.539474 11.188085 7.1492686
12.130337 11.110217 7.6366668
12.906415 10.79254 7.394896
12.488685 10.035409 7.6337118
12.623243 10.005056 6.795186
12.946896 10.551851 8.2392292
12.911146 9.6141987 8.0978136
12.537204 8.3117867 8.6277313
12.990255 7.5789981 8.8659534
12.812657 7.9607773 8.1841869
12.526155 9.140728 8.3034773
12.662219 9.1539879 9.011919
11.727919 10.753038 8.2660036
12.463168 11.01874 8.3564081
12.325011 11.150934 10.082796
12.043017 10.76042 9.922924
11.557738 11.023614 10.067525
12.351582 11.255987 11.117115
12.887303 10.834652 10.153102
12.261673 10.439435 10.825351
12.904308 10.241769 10.845901
11.193516 10.391997 11.300727
12.097486 9.456439 10.815582
11.014938 10.841547 11.021339
11.136258 10.107954 10.845554
10.963025 11.031433 10.376163
10.657088 10.857354 9.7750282
10.334626 11.090712 10.612782
7.9596543 11.189421 10.260358
7.7417722 11.014336 9.8462877
7.4069386 11.134351 10.248119
8.2084713 8.6294117 10.92979
9.0452833 8.4829426 10.913713
8.5063486 9.4453154 10.927011
6.5590639 10.174089 10.955204
6.8041339 9.3966656 11.014347
7.279665 10.416695 11.14294
5.7932382 10.193021 11.249183
5.0608034 10.079642 11.147297
5.5017695 9.3904018 10.99922
5.5718622 11.043875 10.644756
5.1685104 11.001627 9.7145004
4.6802959 10.801329 10.331888
6.1262407 10.934347 10.60994
5.8769627 10.99485 11.114573
7.0732851 10.794362 10.492538
6.3314462 11.071697 9.5978413
5.567708 11.210714 9.2470369
6.4612627 10.812807 9.2570515
6.8889627 10.918227 9.18857
6.088654 11.012132 8.7099981
6.512897 10.994671 7.8264523
5.7844396 11.153733 8.1978769
5.4018536 11.10697 7.7669497
5.314364 11.042537 8.348505
4.4585123 11.023989 7.2603731
3.911376 10.762399 7.6677418
4.1049151 10.961061 8.3859224
5.9787464 10.966891 7.063446
5.9568262 10.998846 6.793819
5.6928029 11.226716 6.4094357
6.3017144 10.260605 5.9123573
5.4264584 10.059856 6.389957
5.3847013 9.3606853 6.2293844
5.0348344 10.299318 6.5913548
4.4009032 10.411317 6.7585363
4.4816551 11.256271 6.5708628
4.0960622 9.479084 6.9413543
3.6729641 10.211447 6.7417874
3.8589628 8.7815189 6.637351
4.5132966 8.8214006 6.9245353
3.5904231 8.3551178 6.9167671
3.4633784 8.9250298 7.0820065
4.8086634 7.654511 6.6930375
4.6080542 7.049634 6.6897244
3.9898503 8.0405388 6.8847713
3.2043366 7.3819718 6.9092555
5.1364999 8.9029541 6.6491427
4.9885812 8.2459097 6.3445206
5.1256175 7.4332085 6.5919018
5.774858 7.8069534 6.0127831
5.7715244 7.059463 6.0612335
7.2055674 10.229652 5.4740033
6.5604153 10.360643 5.6161017
6.5916834 10.926749 5.9815745
7.4939523 10.822078 5.7899742
7.8137875 11.112366 5.5718813
7.4064941 11.109053 4.9366169
7.4934864 10.247858 4.3479247
7.2586756 9.5219517 5.2478046
7.3580093 10.413288 5.025517
7.9475994 9.7707138 3.8827019
8.0658808 8.8574858 3.704792
7.8190155 9.1015835 4.7669668
7.9464974 10.533577 3.8957248
8.2226906 11.035946 4.4149852
9.0163956 10.95234 3.8777092
9.0048695 10.86924 3.4471643
8.4296246 11.087724 3.3641963
8.4802856 11.187613 4.3882451
9.204586 10.919541 4.295598
8.4737616 10.315094 3.2284641
8.3095264 10.149209 3.4763026
8.5178728 10.308229 2.3351817
8.2364655 9.5356808 2.5983996
8.6134129 7.5372844 2.5567074
8.5806217 6.8797131 3.5945866
8.6214256 7.3306894 3.1992872
8.4814196 8.3098516 2.3334372
8.8292532 7.6690335 1.8996122
7.4163265 6.4111686 4.6910229
7.9260697 6.8373561 4.2304101
7.9914107 6.2138157 4.2787724
7.2806096 5.7820435 5.3039031
6.8088126 6.3456125 5.0111899
8.2884884 5.7476158 4.0637283
9.0320606 5.7481184 4.6577888
8.2769318 5.6364474 4.9742422
8.5663319 5.1118803 5.5999327
7.8437862 5.2719216 4.9149022
7.2647753 4.8281503 5.4983754
7.3916759 5.36341 4.9090157
9.7814684 4.7956161 5.724401
9.2385693 4.8604336 5.654922
9.7824001 5.1929193 5.4013205
11.554472 4.8843012 5.570962
12.61741 5.0028949 5.5740581
12.261923 4.2646403 6.0443187
12.948887 4.2542338 6.0551286
12.795533 5.0041332 6.2149067
12.885942 3.9432874 6.9397273
12.958307 4.0287232 7.4834995
12.558786 3.8233044 7.1811581
12.361061 4.1205273 8.1301003
12.814796 4.1338787 9.1838093
12.76761 3.56967 8.6873379
12.961063 3.8166761 10.131198
12.787679 4.0926065 9.7532845
12.961823 4.5492954 10.606291
11.911203 2.6554637 11.066152
12.137279 1.7346877 10.723576
12.911094 1.9758078 10.681429
12.866016 1.9213246 10.411519
12.719234 2.6048956 10.606701
12.682797 2.1449144 9.0152111
12.916039 1.6904001 9.0811052
12.618722 1.6260617 8.1154861
12.791147 1.5234808 9.884594
12.555493 0.99888456 8.9230375
12.705662 0.40754968 8.8410845
12.917693 0.59946609 8.0964737
12.725285 1.1574312 7.6439605
12.821348 0.34280461 7.5824065
12.965044 -0.45904481 7.6593766
12.668108 0.065371394 7.0489745
12.479897 0.70174682 7.0736742
11.410345 1.152473 6.9813447
12.498261 1.3045708 7.2511997
10.454969 1.8603129 7.3395476
10.894372 1.1565329 6.8274107
10.251073 0.79863685 6.737237
9.7440186 1.2911515 7.2044873
9.5215845 1.7197691 7.1832652
8.8420839 2.3968959 6.8569522
9.5096512 2.3672085 6.8767462
9.6644478 3.0538366 6.5052228
10.209418 2.5209615 6.9409838
11.279419 2.9572744 6.6038451
10.901971 2.0330439 6.9489088
11.428307 2.3074293 6.8782778
12.155001 3.177052 6.4272194
11.716667 3.6313801 6.4188132
12.049627 3.4924355 6.1287918
12.645528 3.0585122 6.6535034
12.178263 2.8079195 6.9663725
8.519042 2.4420724 6.5845456
8.0276766 2.8830171 6.7249351
7.072052 1.3584014 6.9661517
6.2408042 1.6626129 6.8118672
7.1408033 1.9003861 6.8170519
7.2654719 0.87066019 6.8876209
7.0993233 0.34575859 7.1266346
8.1875572 1.5593015 7.2274113
8.7577686 0.88245624 7.0872579
8.2963648 0.96987695 6.9137969
8.2699318 0.30453682 6.7728667
12.707639 -0.26215327 8.8984261
12.734837 -0.1125176 9.3828487
12.815747 -1.0953569 9.0188618
12.839917 -1.3118402 9.3340292
12.801949 -1.6159278 8.6849184
12.737211 -2.409663 8.7494011
12.76388 -1.948391 7.9792533
12.65125 -1.8506776 7.1972895
12.87624 -1.5908905 7.1656513
12.378922 -3.0554471 7.8399582
12.849546 -2.4294283 6.8030887
12.820916 -3.6973276 7.5312581
13.042118 -3.4014544 8.4207659
12.809993 -3.053865 8.8766813
12.770625 -3.5183911 9.2402248
12.692198 -4.070713 9.5841742
12.474521 -4.5255837 8.9628134
12.722506 -5.1102238 9.1727648
12.740735 -4.5973577 8.2221155
12.783684 -5.0930138 7.993988
12.67738 -4.0595274 7.8287659
12.878945 -7.26928 7.4784775
12.805217 -7.6333742 7.258502
12.725964 -7.1315117 7.0542455
12.754457 -6.40132 5.5867486
12.917372 -5.6389103 4.9467711
12.705372 -5.6270952 5.4324589
13.011339 -6.7456756 6.1541739
12.958351 -6.9111328 5.79598
13.029617 -7.2653012 9.2424507
12.939447 -7.4588766 8.479908
12.865803 -7.2689581 8.3431511
12.701082 -6.3784466 9.225378
12.618486 -6.7933998 9.6541319
12.692398 -5.79847 8.5786409
12.936091 -5.6901031 9.0329523
12.773287 -5.316927 9.5002861
12.907804 -8.4905663 10.412457
12.703269 -8.2976646 9.6865044
12.709456 -7.7516823 10.476406
12.562396 -8.9737902 10.514487
12.627987 -8.4312305 10.852025
12.473499 -8.203866 10.681406
12.039877 -8.9372044 11.093885
12.036398 -6.971302 11.170844
12.027485 -7.5648942 10.889818
12.607886 -7.1192379 11.314142
12.057818 -6.3980331 10.98727
11.235471 -6.7144084 11.005115
10.815699 -7.5153666 10.987899
10.803423 -6.9456577 11.22455
10.295959 -9.0028563 8.6341438
11.35381 -9.0760813 9.0510635
10.758043 -9.2065592 9.3851919
7.7339578 -8.9502201 7.6871834
7.9054565 -9.0285225 6.8487787
8.189045 -9.010623 7.4398947
8.8007526 -8.8453751 7.185751
8.1805353 -9.1406593 8.0839624
6.6525888 -9.1799726 7.9035001
6.8546262 -9.211668 7.2153888
7.3856072 -8.8820333 8.7983952
6.5585318 -9.1113176 8.5860977
4.7341409 -9.0482445 9.6532326
4.247622 -8.9930801 8.8096552
4.9107099 -9.5434589 8.6816616
5.4313822 -9.1079102 8.0172729
5.7942948 -8.9729443 8.3488016
3.7982969 -8.1995125 7.0765371
3.2188234 -8.5427132 6.7465672
3.7340505 -7.6758852 7.0140934
3.7215562 -9.0290699 8.3444815
3.46316 -9.2471218 8.9626274
3.3834033 -8.9122124 9.8288307
2.6429861 -9.0341635 9.0835457
1.9794799 -8.6382904 9.0277843
2.2660942 -8.9488497 8.2077961
1.9076355 -9.1656647 7.7552643
2.6844859 -8.9142361 7.7989182
0.8127625 -6.58113 11.068113
0.21245718 -6.3974886 11.011247
0.53306717 -7.2083125 11.183027
2.6044655 -5.9019108 11.086941
2.6096408 -5.639544 11.704157
2.2820876 -6.0568266 11.821323
1.8263843 -6.8326845 10.839322
2.5302448 -6.925231 11.09074
3.4287331 -8.0795298 10.93258
2.8660147 -7.6038461 10.867441
2.3959813 -8.4301376 10.742804
3.3515587 -9.0361433 11.039824
3.9336801 -8.4783211 10.982543
3.7410908 -6.2314677 10.982288
3.3634775 -6.9967651 10.98897
4.1927004 -6.7323666 11.044135
4.8475199 -6.5298824 11.012888
5.0632205 -6.2741117 10.988174
4.9217796 -5.5559368 10.936232
5.8914618 -6.6824894 10.981831
5.6077685 -7.603282 10.958101
6.3270764 -6.8235335 10.794536
7.6840296 -5.1936388 11.075463
8.5838833 -4.9819613 11.177267
7.8017039 -4.6504383 10.997062
8.6540012 -4.0673475 10.879587
7.2503948 -4.1301308 10.902512
6.2377944 -5.5221386 11.098413
6.2756371 -6.0374222 10.960131
6.7965493 -5.5913196 10.861889
6.4433212 -4.9219918 11.534823
6.0511718 -5.3988948 11.382504
7.1162176 -4.5356326 11.723444
6.7750168 -4.8202233 12.031463
8.1689606 -3.4408538 11.641268
7.656631 -3.6099682 12.478529
7.6975923 -3.9987483 11.636442
9.4991465 -4.6374578 11.246758
9.2283106 -5.2768731 11.020296
9.8233004 -5.7768984 11.151627
9.1326056 -7.4246044 11.096288
10.151095 -6.897563 11.220979
9.1147718 -6.434011 10.899564
8.4474831 -8.9108562 11.08328
9.0829334 -8.3102779 11.133587
8.3472147 -8.2133255 11.025591
8.1422625 -7.4602013 11.112755
7.7592092 -8.2668247 10.90207
9.156517 -6.2771802 11.042414
8.425272 -6.7679687 11.25743
10.842959 -4.6568251 11.137244
11.27254 -4.0750036 10.805584
10.738832 -4.078928 11.003351
10.678982 -3.5462215 10.809684
10.137266 -4.0171323 11.109561
12.791948 -2.2961688 10.968418
11.84804 -1.6097627 10.830988
11.720857 -2.107708 10.939706
11.057003 -2.7378829 11.241309
12.163239 -2.7961071 11.080235
11.93155 0.35810691 11.234768
11.381536 0.17586261 11.046782
12.050935 -0.54606128 11.050716
12.124963 -1.1301723 11.15265
12.62855 -0.29642272 11.092817
12.735722 0.15265375 10.255242
12.929025 1.219398 10.320136
12.53244 0.84849727 10.868099
12.260506 1.1194484 11.08468
9.9849205 -0.40386939 10.939234
10.141141 -0.62903094 11.085554
10.403719 -0.15926278 10.820513
9.6285181 -0.2460295 11.610582
9.9212837 -0.97251952 11.751858
9.7527285 0.22881806 11.43358
9.7803917 -0.056831241 12.168118
10.06338 0.7023164 11.188752
9.7949095 0.83398646 11.582412
8.9491777 5.578979 11.155176
8.6528368 6.3728771 10.958628
8.3410587 5.3494897 11.191344
8.1118689 5.8957691 11.642254
8.2497559 5.1974316 11.717563
8.4086027 5.1320086 12.178887
8.8241491 4.981132 11.738782
9.1573029 4.003253 15.790514
9.3461256 3.3897157 15.389484
9.3426113 3.8605769 15.016669
9.3450184 2.8176694 15.677734
9.395874 3.3436551 16.262648
9.4619122 3.5070891 16.687641
9.8556499 2.4593081 16.672104
9.5206327 3.4621809 18.222261
9.3556404 3.2047091 18.61138
9.5616093 2.666738 17.913528
9.4411411 2.5909271 17.480824
9.5746403 2.0580771 18.045208
9.772871 1.8882456 16.709902
9.5820627 1.2833844 17.135002
10.099074 1.8515825 16.10722
9.874917 1.3081313 15.512238
9.571763 1.8838814 15.622676
9.7854271 -0.058659911 16.893204
9.546896 -0.6171816 17.565184
9.6798372 -0.7198602 16.636421
9.6655436 -0.39026475 18.227844
9.6461363 -0.85248721 18.329527
9.6314898 0.62468469 19.371218
9.687191 0.051593065 19.404169
9.674716 0.32932603 18.764456
8.8632069 0.70150715 19.898855
10.208311 1.0746754 19.9648
9.0367422 1.576444 20.06456
9.1037979 1.9680353 20.164911
8.2340536 1.172996 19.918245
7.7618518 0.59720469 19.83659
7.455946 0.089725018 20.173634
8.3402948 0.50216246 19.926622
7.2551775 1.3340776 20.059204
7.2965989 2.1390812 20.026155
8.3541231 2.580107 20.06287
7.1930218 2.2928419 19.775074
7.0042205 3.0682297 19.746933
6.6382604 2.5232687 20.276403
6.2829952 1.1333482 19.896147
6.1734214 0.61005396 20.049652
6.7791581 1.1087499 20.118464
5.5748367 -0.046105683 20.15844
6.1048779 -0.30587006 20.14538
9.5635033 -1.7015352 20.311644
9.1699638 -1.8781075 19.414732
9.4179268 -1.4509919 19.422945
9.5492268 -1.2209537 18.93709
9.6366081 -0.82552165 19.303082
7.7690454 -3.9769824 19.401537
8.2710352 -3.5393088 18.474821
8.4723949 -3.5038629 19.085382
7.7857041 -3.7044253 20.294584
7.2162104 -4.3699307 19.464239
7.428586 -3.2066929 19.770987
7.0880609 -3.5817189 19.751854
7.9970188 -2.7298515 20.032232
7.4470654 -2.2165308 19.960463
5.455246 -4.9853983 19.894751
4.7185321 -4.7751436 20.058449
5.4092784 -5.4819937 19.992695
6.0824885 -4.4956493 20.029505
5.4336395 -4.1272969 20.273186
6.0557432 -0.78608227 19.97044
5.6019511 -1.2971179 19.878746
6.0191803 -1.7573482 20.174507
4.8490372 -1.3046904 19.935375
4.7331977 -1.7836553 20.178879
3.9012554 -2.4036245 20.302099
3.6857762 -2.5651045 20.140545
3.5758207 -3.1394928 20.040377
3.0069373 -3.8822684 20.091156
3.74335 -3.8676825 19.89603
3.9579744 -4.5938864 19.887423
4.7885661 -4.1861601 19.979864
3.9390683 -5.3481159 20.14554
3.1199627 -6.0868111 18.526438
2.6443686 -6.0819449 18.036613
3.6038191 -5.865263 18.11755
2.0801678 -6.1482735 18.15844
1.7367432 -5.76933 18.64467
1.4061801 -5.641058 18.224466
0.74340403 -5.619863 17.815453
1.2452223 -5.401124 16.919958
0.74685156 -5.5905337 16.665531
1.8302207 -6.0356855 16.49107
2.0046051 -6.0563293 16.264074
2.439846 -5.8252192 16.611837
2.9496646 -5.7346745 16.953733
2.6920075 -5.9737177 17.561646
5.5181251 -5.3538189 16.178253
5.7389007 -5.2741613 16.586803
4.8419151 -5.5774922 16.807476
5.0072961 -5.7542701 17.340939
5.3082871 -5.3945565 18.13188
4.8590593 -5.6892991 17.939564
4.338531 -5.5572643 18.812862
4.5144296 -5.842968 18.193548
5.7042618 -5.1388721 14.674997
6.2373457 -5.1771774 15.327578
5.7242661 -5.4352112 15.782343
7.8606634 -4.1196733 14.051237
6.9769468 -4.5152974 14.219348
7.4288044 -3.8911495 13.347893
8.4396505 -3.2768965 15.14763
8.1126556 -3.7832546 15.91554
8.0842829 -3.8816352 15.279609
7.3618689 -4.2655382 15.414897
7.8723378 -4.0105491 15.229243
8.2853394 -3.5621977 14.095057
8.2856026 -3.3266134 13.628062
8.6207714 -2.8158679 14.101003
8.7853909 -2.6766162 14.383184
8.7163143 -2.824693 14.869388
8.8854532 -2.4634056 15.588951
8.3070965 -3.3314314 16.747261
7.5859094 -4.2612767 16.60338
7.5122285 -3.8965993 17.566784
7.9075851 -4.1047912 17.907171
7.3503981 -4.5842338 18.021015
7.1687722 -4.3673592 16.708302
8.5956993 -2.733088 18.15366
8.1269798 -3.2213104 18.036139
8.1842403 -3.1408982 17.312864
8.8114777 -2.7729249 16.707064
9.5968046 -1.4195987 14.649759
9.2704477 -1.6259956 14.899441
9.2799292 -1.5933522 14.448986
9.4456682 -1.2357812 12.948862
9.6165314 -0.32447946 12.924565
9.3739471 -1.3016448 13.457315
9.1727905 -1.6937011 13.008475
9.0794115 -1.3182716 12.487022
8.9442091 -1.946673 13.572877
9.0166397 -2.2903557 13.099451
9.3052282 -1.4490173 11.941448
9.2611847 -1.8722928 10.858524
9.202033 -2.2953982 11.690637
8.9392624 -2.9299529 12.148836
8.6468515 -2.8272476 11.776081
8.6374712 -2.9499311 11.214069
8.8963108 -2.9080768 12.555168
9.4940596 1.382948 12.956103
9.7607527 2.4260073 13.129626
9.7577066 1.8708774 13.540788
9.8661366 3.0608032 13.489757
9.6878996 2.47314 12.986011
9.4016962 3.4115419 13.161593
9.5483866 3.0363863 11.61552
9.8873844 2.4511993 12.242078
9.4420929 2.182977 11.61888
9.6864738 1.4348186 11.673543
9.3181906 2.3653092 10.946371
9.8342381 1.2157983 12.277324
9.7509346 0.8457703 13.091499
9.8138704 0.36453927 13.688463
9.5697737 0.095414817 13.036993
9.6696444 -1.5125763 15.465199
9.2620325 -2.0947454 15.686011
9.041213 -2.2448642 16.688112
9.4039698 -1.566978 16.83099
8.8653946 -1.9855586 17.433224
9.6194525 -0.86689854 16.350231
9.5915184 -0.59392655 15.389703
9.0875912 -2.3401651 16.361832
6.5653281 -4.6043983 14.586191
6.5753798 -4.8546195 14.222777
6.3156261 -4.9546409 13.611538
6.2762947 -5.4806757 14.294575
6.1123614 -5.3207059 12.997496
6.7092886 -4.8625851 13.314208
5.1044068 -5.6114421 12.874245
5.815136 -5.2593112 12.264466
5.3465548 -5.5094032 11.890482
5.5966272 -5.2954297 14.267269
4.5662189 -5.88764 14.161019
4.9321709 -5.744966 13.478171
4.5770125 -5.9352379 12.960716
3.980828 -5.6586161 13.135649
4.5141354 -5.8655443 12.30035
4.3185563 -5.7958717 15.163964
3.9627905 -5.4663224 14.357678
3.7013338 -6.0205145 13.807772
3.2761509 -5.8975539 14.136051
2.6028955 -5.7383771 15.08366
2.4694965 -6.1497121 14.284581
1.9822139 -6.005249 14.176578
2.1589527 -5.9360266 13.60714
1.6823061 -5.8683548 13.067046
2.954164 -5.7377558 13.163764
3.0725868 -5.7061949 12.378659
3.4004245 -5.9439764 12.823522
-1.3870848 -4.5090222 13.0201
-1.6397808 -4.2538066 13.506007
-1.9098302 -4.1952186 12.668025
-2.4601493 -3.6038435 13.01216
-2.4139547 -3.9137726 12.305377
-2.4445333 -3.7559004 11.737108
-3.0806592 -3.1637735 11.614452
-2.7322412 -3.0966723 10.904836
-2.3524086 -3.5363016 13.70352
-2.6075225 -3.2868035 13.381925
-1.917147 -4.0983968 13.989294
-1.5323708 -4.4411402 14.005708
-0.88069528 -4.8980522 14.458612
-1.368264 -4.5129366 14.732066
-0.38519078 -5.4850087 15.468883
-0.88623428 -4.9709635 16.155235
-0.52121782 -4.8390837 15.267992
-0.027419865 -5.5013433 14.800538
0.31388789 -5.421062 15.438364
1.1412945 -6.0703607 15.449517
0.65258938 -5.5386858 16.191074
2.7690663 -6.0552921 15.551284
3.5355 -5.7298794 15.323365
1.5011203 -5.7266431 14.489848
1.3943837 -5.6544623 14.965366
1.7035599 -6.0811734 15.608207
-1.6273528 -4.3914886 16.48587
-2.5339282 -3.9705997 16.442244
-2.1157415 -4.320487 16.09009
-2.9703999 -3.0511007 15.43941
-3.1228275 -2.8609052 14.883763
-2.7718689 -3.307045 14.975183
-2.8465352 -2.9512963 17.83028
-3.2408051 -2.1492696 17.59469
-3.3297086 -2.324645 16.865126
-2.0681975 -2.5385287 20.003397
-1.8737084 -2.2426887 19.978504
-2.5722997 -2.0847328 20.254292
-0.65101194 -4.1969142 19.929071
-0.18572003 -4.5274591 19.971197
0.0097766519 -3.7155952 20.292538
0.70932859 -4.8731546 20.106888
-0.11193728 -5.0883112 19.767521
0.96356589 -5.6700311 20.168392
1.4812316 -5.1820197 19.877153
0.65527874 -5.8256159 19.286976
1.1913376 -5.8388071 19.459677
0.20604539 -5.1180773 19.16132
0.4331305 -5.3066397 18.760984
-0.40634847 -5.1980367 19.082304
2.1861305 -2.9627519 19.874786
2.6026165 -2.2291327 19.868275
2.1044765 -2.4220896 20.132135
4.7570853 0.018608332 19.719398
4.6372304 0.96582103 20.160618
3.9125388 0.12714291 19.921726
3.1873217 0.41448095 19.835182
3.2682261 -0.011475205 19.977846
5.063571 1.374153 19.995594
4.326582 1.8933635 19.889982
5.1849937 2.7481649 19.928907
5.4435492 3.2259398 19.92124
4.6982565 2.8587332 20.117565
2.9475968 1.6958084 19.940922
2.1701672 1.0790114 20.107327
2.9224505 2.1909509 19.803272
3.7594442 1.7614892 20.009722
4.146512 3.1041937 19.700188
3.7490146 3.8870783 20.000454
3.2871323 3.177429 19.872993
2.2255175 3.861984 20.124781
2.7709732 2.9925313 19.69582
2.1429145 2.3737929 20.014666
1.2503884 2.7068114 19.989666
1.4677415 1.9885948 20.17004
1.724853 4.2118764 19.859165
2.3350999 4.4248323 19.954718
-0.21800292 3.4016597 19.881058
0.22199082 2.4882421 20.26358
0.40305778 3.1611559 20.065031
-0.4845773 4.3518863 19.863424
-0.97107494 3.9825001 19.846275
-0.036337435 4.9493194 20.114487
-0.63532734 5.167964 19.891054
-1.6888037 4.2550774 19.980902
-1.2724051 3.6067274 20.058683
0.32670891 1.6985695 19.886808
-0.47085422 2.1345437 20.193075
1.7027699 1.082196 20.048771
1.0545977 1.3792238 19.949499
0.90321672 0.98187703 19.985157
0.78842098 0.16314948 20.045578
0.51418424 -0.71799123 20.077763
1.2194685 -0.198497 19.946093
1.8364706 -0.20662057 20.007736
1.7038577 0.55387115 19.996601
-2.2152612 0.76842558 20.017738
-2.7619367 0.42439252 19.502106
-1.9620297 -0.27970624 20.152988
-1.7759879 -0.82635909 19.943977
-2.6342192 -0.90695608 20.086857
-1.6800475 -1.3155255 20.074608
-3.032614 -1.3505774 20.189497
-2.9932871 -0.79531246 20.025898
-4.2259264 -0.25149858 19.88851
-3.3546405 0.20198107 19.483028
-3.5443478 0.51658237 19.904287
-3.3347225 1.0965784 19.955782
-4.0602188 1.0758414 20.188475
-4.5034103 1.4106746 19.195553
-3.9955707 0.71329081 19.304043
-4.328023 0.26062718 18.671328
-4.0185165 0.25768703 19.20558
-3.5821528 -2.2664316 13.322841
-2.9183879 -2.5456746 13.118771
-3.6607556 -2.3518817 13.989266
-3.76543 -2.0268826 11.898119
