ply
format ascii 1.0
comment Author: CloudCompare (TELECOM PARISTECH/EDF R&D)
obj_info Generated by CloudCompare!
element vertex 689
property float x
property float y
property float z
property uchar red
property uchar green
property uchar blue
property float nx
property float ny
property float nz
end_header
-5.43534 9.99952 -6.76208 191 191 191 -0.000977516 0.999999 -0.000977516 
-5.41175 9.99945 -8.00118 191 191 191 -0.000977516 0.999999 -0.000977516 
-6.15185 9.99944 -8.02876 191 191 191 0.000977516 0.999999 -0.000977516 
-6.50075 9.99252 -9.31861 191 191 191 -0.000987108 0.999941 -0.0108582 
-6.34233 9.99947 -8.64555 191 191 191 0.000981342 0.999987 -0.00490671 
-7.71896 8.02814 -9.99215 191 191 191 -0.0128829 0.00297298 -0.999913 
-7.4188 8.63076 -9.99215 191 191 191 -0.0109011 0.00495505 -0.999928 
-7.67135 9.25854 -9.98586 191 191 191 -0.00891926 0.00495514 -0.999948 
-8.18452 9.24727 -9.98142 191 191 191 -0.708475 0.00693224 -0.705702 
-8.19944 6.91988 -8.10814 191 191 191 -0.999999 0.000977516 -0.000977516 
-8.19942 6.68884 -8.75768 191 191 191 -0.999987 -0.000981342 -0.00490671 
-8.19941 7.54006 -8.26312 191 191 191 -0.999999 0.000977516 -0.000977516 
-8.19949 7.05072 -7.44756 191 191 191 -0.999999 0.000977516 -0.000977516 
-8.19942 8.21444 -8.035 191 191 191 -0.999999 -0.000977516 -0.000977516 
-8.19937 8.0836 -8.69558 191 191 191 -0.999987 0.000981342 -0.00490671 
-8.19113 9.37276 -8.01972 191 191 191 -0.999913 0.0128829 0.00297298 
-8.19949 8.75948 -7.65361 191 191 191 -0.999976 0.00688282 -0.00098326 
-8.19952 8.21594 -7.22116 191 191 191 -0.999999 -0.000977516 -0.000977516 
-8.1995 7.57794 -6.87956 191 191 191 -0.999999 -0.000977516 -0.000977516 
-8.19956 8.12297 -6.49817 191 191 191 -0.999999 -0.000977516 -0.000977516 
-8.19953 6.95776 -6.72458 191 191 191 -0.999999 0.000977516 -0.000977516 
-8.19955 8.57642 -4.58296 191 191 191 -0.999995 0.00293828 0.000979427 
-8.19955 7.9658 -5.00078 191 191 191 -0.999999 -0.000977516 -0.000977516 
-8.1945 9.23809 -3.93907 191 191 191 -0.999976 0.00689638 0.000985198 
-8.19954 8.07153 -5.73534 191 191 191 -0.999999 -0.000977516 0.000977516 
-8.19956 8.70953 -6.07694 191 191 191 -0.999995 0.00294405 0.00098135 
-8.18828 9.98203 -3.41655 191 191 191 -0.709868 0.704333 0.00138376 
-7.62151 9.99106 -3.21302 191 191 191 -0.0148646 0.999889 0.00099097 
-7.4269 9.99111 -2.57838 191 191 191 -0.0108797 0.99994 0.000989061 
-8.19964 7.04132 -2.49857 191 191 191 -0.999987 -0.00490671 0.000981342 
-8.19962 7.82895 -2.15194 191 191 191 -0.999999 0.000977516 0.000977516 
-8.19352 6.43178 -1.90146 191 191 191 -0.999956 -0.00888411 0.00296137 
-8.19257 6.57222 -1.30586 191 191 191 -0.999956 -0.00890169 0.00296723 
-8.19959 8.5435 -1.81121 191 191 191 -0.999987 0.00490671 -0.000981342 
-8.19249 9.29807 -1.37145 191 191 191 -0.99996 0.00888415 -0.000987127 
-8.1925 9.23014 -2.0733 191 191 191 -0.99996 0.00886664 0.000985182 
-8.18626 9.98367 -2.22016 191 191 191 -0.708486 0.705724 -0.00138106 
-7.42603 9.99215 -1.99177 191 191 191 -0.0108797 0.99994 -0.000989061 
-6.75029 9.99957 -1.6896 191 191 191 -0.00491636 0.999987 -0.000983272 
-6.14751 9.99962 -1.19329 191 191 191 -0.000977516 0.999999 0.000977516 
-6.18548 9.99961 -0.536372 191 191 191 -0.000977516 0.999999 0.000977516 
-6.28188 9.99957 0.101801 191 191 191 -0.000977516 0.999999 0.000977516 
-5.84195 9.99961 0.510252 191 191 191 -0.000977516 0.999999 0.000977516 
-6.58679 9.99953 0.655589 191 191 191 -0.000977516 0.999999 0.000977516 
-8.1941 9.29754 -0.729599 191 191 191 -0.99996 0.00888415 -0.000987127 
-8.19955 8.6291 -0.38476 191 191 191 -0.999987 0.00490671 -0.000981342 
-7.60829 9.99102 0.640054 191 191 191 -0.0148646 0.999889 -0.00099097 
-7.08509 9.99949 1.00312 191 191 191 -0.00689638 0.999976 -0.000985198 
-6.64516 9.99952 1.41157 191 191 191 -0.000977516 0.999999 0.000977516 
-8.19951 8.60865 1.05025 191 191 191 -0.999995 0.00293828 0.000979427 
-8.18639 5.90148 1.0027 191 191 191 -0.701004 -0.703968 -0.114117 
-8.19339 6.54188 1.35648 191 191 191 -0.999956 -0.00888411 -0.00296137 
-5.571 5.54179 2.28234 191 191 191 -0.0142651 -0.919454 -0.39294 
-6.34939 5.41671 2.59923 191 191 191 0.0199016 -0.895573 -0.444469 
-6.13873 5.6715 1.99648 191 191 191 0.0138981 -0.941279 -0.337344 
-6.8991 5.19715 2.93129 191 191 191 -0.00133325 -0.870612 -0.491969 
-6.33136 5.06744 3.21714 191 191 191 0.0177379 -0.847328 -0.530774 
-7.53473 5.09577 3.18056 191 191 191 -0.028812 -0.852011 -0.522731 
-6.10997 4.70615 3.73443 191 191 191 0.00412295 -0.784735 -0.619817 
-5.56026 4.92571 3.40237 191 191 191 -0.00135976 -0.819933 -0.572458 
-5.15424 5.24205 2.96431 191 191 191 -0.00132881 -0.873026 -0.487672 
-4.93285 4.88078 3.48161 191 191 191 -0.0179675 -0.803011 -0.595693 
-4.94359 5.49685 2.36157 191 191 191 -0.011648 -0.917604 -0.397326 
-3.60339 7.94589 2.63039 191 191 191 0.898831 0.00130834 -0.438294 
-3.38463 7.44545 2.9795 191 191 191 0.866795 0.00940708 -0.498575 
-3.08854 7.04994 3.50526 191 191 191 0.812433 0.0040963 -0.58304 
-3.75083 8.61596 2.22522 191 191 191 0.926978 0.00127157 -0.375114 
-3.70612 9.34977 2.38018 191 191 191 0.92028 0.0116164 -0.391087 
-4.93376 9.99953 2.20319 191 191 191 0.00886664 0.99996 -0.000985182 
-5.61757 9.99957 1.28295 191 191 191 -0.000977516 0.999999 0.000977516 
-6.57129 9.99949 2.10274 191 191 191 -0.000977516 0.999999 0.000977516 
-6.07298 9.99955 1.75521 191 191 191 -0.000977516 0.999999 0.000977516 
-5.54369 9.99954 1.97412 191 191 191 0.000977516 0.999999 0.000977516 
-4.57624 9.99951 3.54309 191 191 191 0.00491636 0.999987 -0.000983272 
-5.0701 9.99954 3.99485 191 191 191 0.000977516 0.999999 -0.000977516 
-6.37924 9.99954 4.16484 191 191 191 -0.000977516 0.999999 -0.000977516 
-5.76364 9.99956 4.44578 191 191 191 -0.000977516 0.999999 0.000977516 
-8.19955 7.1716 1.80461 191 191 191 -0.999987 -0.00490671 -0.000981342 
-8.19953 7.81648 2.13917 191 191 191 -0.999999 0.000977516 -0.000977516 
-8.19952 7.92565 1.42608 191 191 191 -0.999999 0.000977516 0.000977516 
-8.19399 5.78394 3.33746 191 191 191 -0.999964 -0.00692359 -0.00494542 
-8.19958 6.64332 3.19035 191 191 191 -0.999991 -0.00294404 -0.00294404 
-8.19397 6.20305 2.66481 191 191 191 -0.999964 -0.00690992 -0.00493566 
-8.1934 6.43271 2.06957 191 191 191 -0.999956 -0.00888411 -0.00296137 
-8.19455 9.31116 3.47004 191 191 191 -0.999976 0.00688282 0.00098326 
-8.19454 9.32348 4.21881 191 191 191 -0.999976 0.00688282 0.00098326 
-8.19435 9.32368 4.90531 191 191 191 -0.999976 0.00689638 0.000985198 
-8.1995 8.60486 5.27511 191 191 191 -0.999995 0.00294405 0.00098135 
-8.1995 7.81808 5.61918 191 191 191 -0.999999 0.000977516 0.000977516 
-8.1995 7.19749 6.0578 191 191 191 -0.999999 0.000977516 0.000977516 
-8.1995 6.58829 6.54077 191 191 191 -0.999999 0.000977516 0.000977516 
-8.1995 6.0042 6.91013 191 191 191 -0.999999 0.000977516 -0.000977516 
-8.19951 5.28633 6.79868 191 191 191 -0.999999 0.000977516 -0.000977516 
-8.19951 5.09714 6.11825 191 191 191 -0.999999 0.000977516 0.000977516 
-8.19956 6.8725 3.87944 191 191 191 -0.999999 0.000977516 0.000977516 
-8.19956 4.89211 5.49288 191 191 191 -0.999991 -0.00294983 -0.00294983 
-8.18769 5.00003 3.32868 191 191 191 -0.704483 -0.592294 -0.391013 
-8.18882 2.47839 5.4771 191 191 191 -0.70874 -0.294103 -0.641241 
-7.51229 2.50266 5.45757 191 191 191 -0.0169938 -0.411772 -0.911128 
-6.84858 2.41103 5.4824 191 191 191 -0.00388511 -0.407937 -0.913002 
-7.51221 2.97807 5.23843 191 191 191 -0.00669717 -0.494251 -0.869293 
-6.19866 2.7533 5.33862 191 191 191 -0.0119558 -0.458306 -0.888714 
-5.52431 3.07064 5.12353 191 191 191 0.00401934 -0.507777 -0.861479 
-7.51108 3.43197 4.9276 191 191 191 -0.0151479 -0.576995 -0.816607 
-6.04812 4.2948 4.19467 191 191 191 -0.001381 -0.713977 -0.700167 
-5.41292 4.10072 4.35418 191 191 191 0.00138031 -0.683251 -0.730182 
-4.64584 4.33578 4.15981 191 191 191 -0.0097132 -0.739591 -0.672986 
-4.95282 2.80675 5.30809 191 191 191 0.0174277 -0.473228 -0.880767 
-4.18587 2.5683 5.42013 191 191 191 -0.00130527 -0.437266 -0.899331 
-3.50959 2.53836 5.43674 191 191 191 -0.0437876 -0.396742 -0.916885 
-3.00121 2.1753 5.52534 191 191 191 0.00126369 -0.357624 -0.933865 
-2.49193 2.58208 5.42143 191 191 191 0.0385109 -0.407685 -0.91231 
-4.23982 4.65213 3.72176 191 191 191 0.00137317 -0.778585 -0.627537 
-3.3151 5.12684 3.13989 191 191 191 0.532669 -0.529309 -0.660375 
-3.78268 5.01424 3.32201 191 191 191 0.0207865 -0.807902 -0.588951 
-2.30083 6.54123 4.40324 191 191 191 0.686007 -0.00415762 -0.727583 
-2.67101 6.8351 3.96655 191 191 191 0.749912 -0.00414316 -0.661525 
-1.80748 6.81068 4.78473 191 191 191 0.582087 -0.0263953 -0.812698 
-1.88219 6.06505 4.71827 191 191 191 0.612421 -0.00137007 -0.79053 
-1.50786 5.589 5.01727 191 191 191 0.563126 0.00135693 -0.82637 
-1.06245 3.62206 5.27501 191 191 191 0.481539 -0.00933733 -0.876375 
0.685488 6.05974 5.8535 191 191 191 0.178985 -0.00342009 -0.983846 
1.32419 7.30886 5.97365 191 191 191 0.0815541 0.00529572 -0.996655 
1.69006 6.61598 6.00448 191 191 191 0.021524 0.0297236 -0.999326 
1.00919 6.66487 5.94861 191 191 191 0.133813 0.0258631 -0.990669 
0.955217 7.97924 5.95034 191 191 191 0.142654 -0.0190954 -0.989588 
1.6361 7.93035 6.00621 191 191 191 0.0338228 -0.015374 -0.99931 
0.319615 6.75261 5.82267 191 191 191 0.250166 0.018128 -0.968033 
-0.361514 6.77238 5.59843 191 191 191 0.3658 0.0166856 -0.930544 
-0.037816 7.37751 5.69354 191 191 191 0.312517 0.00370574 -0.949905 
-1.02986 5.7688 5.30225 191 191 191 0.457197 -0.0281558 -0.88892 
-0.696467 6.24099 5.41366 191 191 191 0.412022 -0.00909829 -0.911128 
-1.0539 6.86588 5.28453 191 191 191 0.488802 -0.00399566 -0.872386 
-1.47253 7.34206 4.9695 191 191 191 0.553762 -0.00135394 -0.832674 
-0.435138 8.01876 5.57938 191 191 191 0.374688 -0.00639399 -0.927129 
0.245991 7.999 5.80363 191 191 191 0.256964 -0.0132704 -0.96633 
-1.09445 7.96409 5.26233 191 191 191 0.494241 0.00937584 -0.869274 
-0.81064 8.58558 5.37241 191 191 191 0.434043 -0.00655654 -0.900868 
-1.57963 9.98421 4.96132 191 191 191 0.39842 0.699302 -0.593497 
-1.30242 9.25664 5.15702 191 191 191 0.494251 0.00669717 -0.869293 
-0.64311 9.31131 5.47406 191 191 191 0.413971 0.0117531 -0.910214 
-0.188837 9.31324 5.67114 191 191 191 0.34325 -0.00628663 -0.939223 
-1.84803 7.90889 4.76254 191 191 191 0.590756 0.0207526 -0.806583 
-2.44607 9.98557 4.24062 191 191 191 0.505577 0.699131 -0.505577 
-2.67566 9.99278 4.87964 191 191 191 0.00695089 0.999936 -0.00893687 
-2.17565 9.99282 5.36287 191 191 191 0.00893687 0.999936 -0.00695089 
-1.73091 9.99099 5.66022 191 191 191 0.00695076 0.999916 -0.0109226 
0.557895 8.62049 5.83617 191 191 191 0.202338 -0.00115622 -0.979315 
0.235134 9.98599 5.79152 191 191 191 0.206314 0.699607 -0.684094 
0.27264 9.31301 5.80983 191 191 191 0.246742 0.0180543 -0.968913 
0.984166 9.99263 6.64803 191 191 191 0.000985182 0.99996 -0.00886664 
0.345295 9.99261 6.60696 191 191 191 0.000987127 0.99996 -0.00888415 
-0.116182 9.99285 6.46827 191 191 191 0.00494534 0.999948 -0.00890162 
-0.663361 9.99952 7.52524 191 191 191 0.000977516 0.999999 -0.000977516 
-0.599706 9.99951 6.93651 191 191 191 0.0029498 0.999984 -0.00491634 
-0.936175 9.99956 8.26021 191 191 191 0.000977516 0.999999 0.000977516 
1.67623 9.99952 8.03733 191 191 191 -0.000977516 0.999999 0.000977516 
2.31279 9.99953 8.04042 191 191 191 0.000977516 0.999999 0.000977516 
2.99329 9.99952 7.97798 191 191 191 0.000977516 0.999999 0.000977516 
2.76125 9.9995 8.64639 191 191 191 0.00098326 0.999976 0.00688282 
3.59233 9.99951 7.80259 191 191 191 -0.000977516 0.999999 0.000977516 
3.12339 9.99042 9.28602 191 191 191 0.000990998 0.999917 0.012883 
2.4429 9.99043 9.34847 191 191 191 0.000990998 0.999917 0.012883 
-0.592983 9.98063 9.98946 191 191 191 0.00138104 0.702951 0.711237 
-1.67492 9.99956 8.31249 191 191 191 -0.000977516 0.999999 0.000977516 
-2.33039 9.99956 8.18657 191 191 191 -0.000977516 0.999999 0.000977516 
-3.02145 9.99955 8.17091 191 191 191 -0.000977516 0.999999 0.000977516 
-4.22711 8.47149 9.99938 191 191 191 0.000979427 0.00293828 0.999995 
-3.85236 9.20008 9.99472 191 191 191 0.00098326 0.00688282 0.999976 
-3.56148 7.63105 9.99941 191 191 191 -0.000977516 0.000977516 0.999999 
-4.28085 7.68246 9.99946 191 191 191 0.000977516 0.000977516 0.999999 
-4.44315 6.97627 9.99945 191 191 191 -0.000977516 0.000977516 0.999999 
-2.89529 7.11726 9.99952 191 191 191 -0.0029498 0.00491634 0.999984 
-2.84154 7.9063 9.99944 191 191 191 -0.000977516 0.000977516 0.999999 
-2.12005 8.10441 9.99947 191 191 191 -0.000977516 0.000977516 0.999999 
-1.65453 9.39911 9.99434 191 191 191 0.000985198 0.00689638 0.999976 
-1.40918 8.52919 9.99945 191 191 191 0.00098135 0.00294405 0.999995 
-0.998953 9.11199 9.9944 191 191 191 0.00098326 0.00688282 0.999976 
-1.46448 7.8173 9.99953 191 191 191 -0.00294404 0.00294404 0.999991 
-0.854702 7.34844 10.005 191 191 191 -0.00295558 0.00689636 0.999972 
-1.56557 6.92367 10.005 191 191 191 -0.00296137 0.00888411 0.999956 
-2.14251 6.61296 10.0076 191 191 191 -0.00296717 0.0108796 0.999936 
-2.86244 6.33771 10.0075 191 191 191 -0.00692351 0.00692351 0.999952 
-2.55717 5.4865 10.0122 191 191 191 -0.437109 0.556774 0.706355 
-2.9525 5.17424 10.6314 191 191 191 -0.679996 0.733055 0.0153592 
-3.50867 4.54524 13.8834 191 191 191 -0.763997 0.645183 0.00690774 
-3.93993 4.02888 13.9748 191 191 191 -0.82121 0.570625 -0.00136187 
-3.5189 4.5353 12.9744 191 191 191 -0.758957 0.651127 0.00414731 
-4.3005 3.39733 14.0089 191 191 191 -0.871747 0.48994 -0.00400496 
-3.47009 4.60408 12.0715 191 191 191 -0.748699 0.662897 -0.00415175 
-4.89241 3.88856 10.0088 191 191 191 -0.00893672 0.00893672 0.99992 
-4.07259 3.82034 10.0154 191 191 191 -0.592294 0.391013 0.704483 
-4.57162 4.38007 10.0062 191 191 191 -0.00693723 0.00693723 0.999952 
-5.35656 3.25857 10.0089 191 191 191 -0.00888415 0.000987127 0.99996 
-4.62574 2.79417 10.0128 191 191 191 -0.648732 0.275751 0.709301 
-5.58894 2.72391 10.0037 191 191 191 -0.00689636 -0.00295558 0.999972 
-4.09295 3.78274 10.7389 191 191 191 -0.83926 0.543688 0.00677916 
-4.39233 3.3142 10.9767 191 191 191 -0.883232 0.468844 0.00929718 
-4.61627 2.80034 10.6155 191 191 191 -0.918036 0.396395 0.00903832 
-4.61524 2.78571 11.5742 191 191 191 -0.922987 0.384035 0.0247345 
-4.91662 2.00607 11.8384 191 191 191 -0.955077 0.296234 0.00860429 
-4.69269 2.51993 12.1996 191 191 191 -0.93201 0.362378 0.0063575 
-4.80268 2.28813 12.8988 191 191 191 -0.941596 0.336554 -0.0113445 
-5.08849 1.24559 11.9522 191 191 191 -0.982047 0.188635 -0.00114324 
-5.19565 0.528051 12.253 191 191 191 -0.996257 0.0861225 0.00744269 
-5.19166 0.079452 11.5288 191 191 191 -0.999913 0.0128829 0.00297298 
-5.2044 -0.143383 12.3412 191 191 191 -0.999312 -0.0337536 0.0153426 
-5.21021 -0.351584 10.8156 191 191 191 -0.998835 -0.048149 -0.00307334 
-5.14095 -0.969241 12.3111 191 191 191 -0.990871 -0.134261 0.0122056 
-5.14495 -0.520643 13.0352 191 191 191 -0.997002 -0.0770171 0.0073852 
-4.90347 -2.0299 15.1533 191 191 191 -0.958645 -0.28454 -0.00610602 
-4.45522 -3.14911 13.7353 191 191 191 -0.890428 -0.455107 -0.00395746 
-4.53886 -2.93251 14.4613 191 191 191 -0.909655 -0.415362 0.00129396 
-4.42924 -3.20251 15.2598 191 191 191 -0.888805 -0.458269 0.00396198 
-4.69248 -2.62645 15.2132 191 191 191 -0.926978 -0.375114 0.00127157 
-4.79385 -2.2999 15.9518 191 191 191 -0.943059 -0.332624 -0.00124578 
-4.69535 -2.61874 16.7396 191 191 191 -0.926978 -0.375114 0.00127157 
-4.90634 -2.02219 16.6797 191 191 191 -0.957315 -0.289024 0.00365853 
-4.97418 -1.67604 17.4627 191 191 191 -0.970335 -0.241691 0.00595298 
-5.07269 -1.35719 16.6749 191 191 191 -0.979766 -0.200117 0.00347024 
-5.17219 -0.737872 16.7325 191 191 191 -0.994035 -0.109009 0.0032379 
-5.20846 -0.100479 16.8147 191 191 191 -0.999917 -0.0128575 0.000989037 
-5.19096 0.540958 16.985 191 191 191 -0.996311 0.0857611 0.00317634 
-4.86563 -2.14683 18.2245 191 191 191 -0.951586 -0.307321 0.00617111 
-5.03197 -1.48184 18.2197 191 191 191 -0.976308 -0.216308 0.00584615 
-4.68252 -2.5592 18.9812 191 191 191 -0.654976 -0.261673 0.708896 
-4.62473 -2.75341 18.2242 191 191 191 -0.919374 -0.393281 0.00902611 
-3.89031 -2.91299 18.9904 191 191 191 -0.0149531 -0.00697811 0.999864 
-2.25433 -1.32199 19 191 191 191 -0.000977516 0.000977516 0.999999 
-1.55866 -1.662 19 191 191 191 0.000977516 0.000977516 0.999999 
-1.67597 -0.915713 19 191 191 191 -0.000977516 0.000977516 0.999999 
-1.09848 -0.455371 19 191 191 191 0.000977516 0.000977516 0.999999 
-1.79414 -0.115364 19 191 191 191 -0.000977516 -0.000977516 0.999999 
-1.86897 0.642617 19 191 191 191 -0.000977516 -0.000977516 0.999999 
-2.09334 1.49712 19 191 191 191 -0.000977516 0.000977516 0.999999 
-2.77166 1.79764 18.9999 191 191 191 -0.000977516 0.000977516 0.999999 
-2.28173 4.68825 18.9929 191 191 191 -0.00693723 0.00693723 0.999952 
-0.326325 4.22929 19 191 191 191 -0.000977516 0.000977516 0.999999 
0.286937 4.55258 19 191 191 191 -0.000977516 0.000977516 0.999999 
-0.137124 3.42724 19 191 191 191 -0.000977516 -0.000977516 0.999999 
1.06541 4.13193 19.0001 191 191 191 0.000977516 -0.000977516 0.999999 
0.047551 2.66072 19 191 191 191 -0.000977516 -0.000977516 0.999999 
3.20569 1.3625 19 191 191 191 0.000977516 0.000977516 0.999999 
0.941747 -2.26312 19.0001 191 191 191 -0.000977516 -0.000977516 0.999999 
1.53827 -1.70913 19.0001 191 191 191 0.000977516 0.000977516 0.999999 
2.24628 -1.90963 19.0001 191 191 191 0.000977516 0.000977516 0.999999 
0.723117 -4.59399 19 191 191 191 -0.000977516 -0.000977516 0.999999 
1.46279 -4.73119 19 191 191 191 -0.000977516 -0.000977516 0.999999 
1.75574 -5.48371 18.9999 191 191 191 -0.00098135 -0.00294405 0.999995 
1.57803 -6.22397 18.9941 191 191 191 -0.000985182 -0.00886664 0.99996 
0.855005 -6.16604 18.9936 191 191 191 -0.000985182 -0.00886664 0.99996 
1.34361 -6.96082 18.9878 191 191 191 -0.0558483 -0.700252 0.711708 
2.24435 -6.27849 18.9941 191 191 191 0.000985182 -0.00886664 0.99996 
0.434248 -5.33704 18.9999 191 191 191 -0.000981342 -0.00490671 0.999987 
-2.68229 -5.37675 18.281 191 191 191 -0.642214 -0.766514 0.00414332 
-2.16133 -5.76591 18.2818 191 191 191 -0.563777 -0.825872 0.00955554 
-2.39884 -5.5625 18.9859 191 191 191 -0.418946 -0.561354 0.713698 
-3.19449 -4.89744 18.2822 191 191 191 -0.712619 -0.70155 0.00138373 
-2.95697 -5.10085 17.5781 191 191 191 -0.683151 -0.730265 0.00415711 
-3.35478 -4.69522 18.9845 191 191 191 -0.521387 -0.471413 0.711284 
-3.62947 -4.41932 18.2817 191 191 191 -0.773939 -0.633223 0.00689785 
-3.4522 -4.59882 16.1179 191 191 191 -0.75505 -0.655665 0.00138035 
-3.24206 -4.86155 16.8809 191 191 191 -0.719467 -0.694514 0.00415877 
-3.67931 -4.35881 16.8162 191 191 191 -0.781002 -0.624527 0.00137259 
-2.72987 -5.34086 16.8797 191 191 191 -0.646802 -0.762647 0.00413733 
-2.18235 -5.76351 16.9411 191 191 191 -0.570625 -0.82121 0.00136187 
-2.46744 -5.52421 16.2439 191 191 191 -0.610705 -0.791857 0.00137237 
-1.61316 -6.11746 16.9627 191 191 191 -0.482479 -0.875906 -0.00132914 
-1.87559 -5.9341 17.5985 191 191 191 -0.529135 -0.848511 0.00676643 
-2.10803 -4.82782 18.9925 191 191 191 -0.00692351 -0.00692351 0.999952 
-1.83103 -4.07115 18.9999 191 191 191 -0.00294983 -0.00294983 0.999991 
-2.6428 -4.41668 18.9925 191 191 191 -0.00693723 -0.00693723 0.999952 
0.067945 -4.50185 19 191 191 191 -0.000977516 -0.000977516 0.999999 
-0.469723 -4.12054 19 191 191 191 -0.000977516 -0.000977516 0.999999 
-0.286316 -3.35712 19 191 191 191 0.000977516 -0.000977516 0.999999 
-1.11285 -3.71887 19 191 191 191 -0.000977516 -0.000977516 0.999999 
0.318599 -2.88602 19 191 191 191 0.000977516 -0.000977516 0.999999 
-0.32453 -2.48434 19.0001 191 191 191 -0.000977516 0.000977516 0.999999 
-0.954875 -2.10558 19 191 191 191 -0.000977516 0.000977516 0.999999 
-1.53323 -2.51186 19 191 191 191 -0.000977516 0.000977516 0.999999 
-2.25141 -2.86414 19 191 191 191 -0.000977516 -0.000977516 0.999999 
-1.64762 -3.30772 19 191 191 191 -0.000977516 -0.000977516 0.999999 
-4.11569 -3.69144 18.9824 191 191 191 -0.597578 -0.36837 0.712182 
-4.34645 -3.36032 18.2318 191 191 191 -0.880921 -0.473112 0.0119944 
-4.02051 -3.88598 18.2334 191 191 191 -0.828022 -0.560654 0.00682061 
-4.52955 -2.94795 17.4752 191 191 191 -0.908738 -0.417317 0.00650027 
-3.86022 -4.0882 17.531 191 191 191 -0.805702 -0.592307 0.00410374 
-4.08253 -3.80232 15.2806 191 191 191 -0.841304 -0.540548 0.00406427 
-3.71059 -4.32591 15.3984 191 191 191 -0.784741 -0.619822 0.00137433 
-3.19895 -4.89565 14.2502 191 191 191 -0.711248 -0.702929 0.00415934 
-3.3787 -4.66758 13.4439 191 191 191 -0.742124 -0.670261 -0.00138198 
-2.61853 -5.43703 14.3566 191 191 191 -0.631887 -0.775059 0.00137666 
-2.1454 -5.79268 15.6308 191 191 191 -0.561268 -0.827633 -0.001359 
-1.53571 -6.15403 15.7076 191 191 191 -0.472993 -0.881065 0.00132491 
-0.847108 -6.48705 15.7149 191 191 191 -0.373806 -0.927499 -0.00382737 
-1.23131 -6.27987 16.3125 191 191 191 -0.435151 -0.900357 0.00130676 
-0.924549 -6.45047 16.97 191 191 191 -0.394537 -0.918872 -0.00385541 
-0.479747 -6.6314 13.2128 191 191 191 -0.330406 -0.943838 -0.00124681 
-1.10952 -6.36312 13.1486 191 191 191 -0.424583 -0.905343 -0.00914488 
-1.36974 -6.20638 12.5346 191 191 191 -0.456129 -0.889912 -0.00131449 
-4.06187 -3.80137 11.5117 191 191 191 -0.841291 -0.54054 0.00677368 
-3.11952 -4.99425 10.6278 191 191 191 -0.69869 -0.715358 0.00972332 
-2.90926 -5.17366 10.0116 191 191 191 -0.481954 -0.528648 0.69875 
-2.61293 -5.45543 10.628 191 191 191 -0.623436 -0.781725 0.0152735 
-1.44213 -6.22548 10.6607 191 191 191 -0.451947 -0.891965 0.0119282 
-1.97575 -5.89824 10.6614 191 191 191 -0.54791 -0.836284 0.0205981 
-1.86904 -5.96208 10.0111 191 191 191 -0.369485 -0.605955 0.704485 
-2.18603 -5.71883 11.2775 191 191 191 -0.571891 -0.820301 0.00682447 
-1.80757 -6.00599 11.9234 191 191 191 -0.512919 -0.858436 0.00133921 
-1.11102 -6.36202 11.9221 191 191 191 -0.41947 -0.907768 0.00129867 
-0.845789 -6.45172 11.2945 191 191 191 -0.381263 -0.924466 -0.00127513 
-0.407958 -6.65211 11.9058 191 191 191 -0.324419 -0.945912 -0.00124299 
0.257789 -6.83563 11.9304 191 191 191 -0.214564 -0.976676 -0.00820736 
-0.007441 -6.74593 12.558 191 191 191 -0.265967 -0.963981 0.00120347 
0.599621 -6.86488 11.3184 191 191 191 -0.163122 -0.986605 0.00112498 
2.42462 -6.98237 10.6828 191 191 191 0.0783138 -0.996623 0.0246742 
3.02679 -6.90873 10.6826 191 191 191 0.172022 -0.984795 0.0242447 
3.67449 -6.76122 10.684 191 191 191 0.265128 -0.96399 0.0207704 
5.81944 -5.70339 15.1021 191 191 191 0.575006 -0.818121 -0.00682905 
5.89759 -5.65882 14.4377 191 191 191 0.583045 -0.812439 0.00136544 
5.35713 -5.99494 16.3877 191 191 191 0.510941 -0.859615 0.00134105 
5.61749 -5.86422 15.7599 191 191 191 0.542461 -0.840071 0.00405831 
3.51477 -6.80805 15.9032 191 191 191 0.243373 -0.969932 -0.00118719 
3.84341 -6.70547 14.6187 191 191 191 0.300718 -0.953706 -0.00368226 
3.06869 -6.88036 14.6298 191 191 191 0.182412 -0.983189 -0.00803072 
2.7842 -6.90788 15.2174 191 191 191 0.145461 -0.989358 0.00333117 
2.87818 -6.90586 15.8607 191 191 191 0.149589 -0.98864 -0.0146215 
2.81983 -6.92162 16.5251 191 191 191 0.151462 -0.988432 -0.0078536 
1.02711 -6.94806 18.3774 191 191 191 -0.114005 -0.993475 -0.00325729 
1.75013 -7.00599 18.3779 191 191 191 -0.0150724 -0.999801 -0.0130627 
2.46353 -6.97114 18.3839 191 191 191 0.10282 -0.994652 -0.00974088 
3.18038 -6.85687 18.3834 191 191 191 0.201881 -0.979409 0.0011536 
2.78348 -6.90449 18.9878 191 191 191 0.111178 -0.69227 0.713023 
2.31846 -2.63905 19.0001 191 191 191 -0.000977516 -0.000977516 0.999999 
2.96163 -2.03569 19.0001 191 191 191 0.000977516 0.000977516 0.999999 
3.59728 -1.50238 19.0001 191 191 191 0.000977516 0.000977516 0.999999 
3.90008 -3.68647 19.0001 191 191 191 0.000977516 -0.000977516 0.999999 
4.07676 -4.42931 19 191 191 191 0.000977516 -0.000977516 0.999999 
4.66855 -3.94128 19 191 191 191 0.000977516 -0.000977516 0.999999 
3.87483 -6.68055 18.3767 191 191 191 0.293988 -0.95577 0.00861054 
4.58461 -6.42116 18.3764 191 191 191 0.393281 -0.919374 0.00902611 
4.88725 -6.25542 17.7213 191 191 191 0.443546 -0.896251 0.0013084 
5.22254 -6.10571 18.3317 191 191 191 0.491076 -0.871091 0.00669041 
5.11203 -6.16286 17.0327 191 191 191 0.479317 -0.877641 -0.00132775 
5.7703 -5.77205 17.0316 191 191 191 0.564391 -0.825507 -0.00135998 
6.11067 -5.48173 17.6871 191 191 191 0.616405 -0.787399 0.00689491 
5.82926 -5.71592 18.3316 191 191 191 0.579396 -0.81499 0.00958811 
5.52661 -5.88165 18.9867 191 191 191 0.376037 -0.586224 0.717591 
5.48927 -5.088 18.9933 191 191 191 0.00494542 -0.00692359 0.999964 
5.36536 -4.24183 18.9999 191 191 191 0.00294983 -0.00294983 0.999991 
5.18869 -3.49899 19 191 191 191 0.000977516 -0.000977516 0.999999 
5.77238 -2.99467 19 191 191 191 0.000977516 -0.000977516 0.999999 
6.26499 -2.49516 19 191 191 191 0.000977516 -0.000977516 0.999999 
7.53717 -3.94099 18.9861 191 191 191 0.574446 -0.396681 0.716 
7.40117 -3.08649 18.9925 191 191 191 0.0109226 -0.00695076 0.999916 
7.74588 -3.68787 18.3153 191 191 191 0.849682 -0.527155 0.0121964 
7.89261 -3.39928 17.6973 191 191 191 0.875267 -0.483595 0.00666109 
8.07739 -3.10134 17.0691 191 191 191 0.896771 -0.442477 0.00393897 
8.36043 -2.45727 17.1242 191 191 191 0.935977 -0.351785 0.0139698 
7.83401 -1.77356 18.9939 191 191 191 0.00888411 -0.00296137 0.999956 
7.02481 -2.12321 19 191 191 191 0.00490671 -0.000981342 0.999987 
7.67992 -2.45087 18.994 191 191 191 0.00890162 -0.00494534 0.999948 
6.41908 -1.81786 19 191 191 191 0.000977516 0.000977516 0.999999 
5.71267 -1.45792 19 191 191 191 0.000977516 0.000977516 0.999999 
4.89362 0.947201 19 191 191 191 0.000977516 0.000977516 0.999999 
7.98095 -1.04812 18.9946 191 191 191 0.00689638 -0.000985198 0.999976 
8.63606 -1.37578 18.9886 191 191 191 0.687995 -0.140008 0.712082 
8.60261 -1.66823 13.273 191 191 191 0.971585 -0.236008 -0.0179701 
8.73278 -1.01434 13.2673 191 191 191 0.989661 -0.141058 -0.0259546 
8.66632 -1.33962 13.927 191 191 191 0.980932 -0.194346 0.00114998 
8.72291 -1.05858 14.5582 191 191 191 0.988152 -0.151236 0.0261536 
8.79737 0.388418 13.2932 191 191 191 0.998324 0.0515468 -0.0262994 
8.79764 0.002033 13.9366 191 191 191 0.999999 -0.000977516 0.000977516 
8.79622 -0.299349 13.278 191 191 191 0.99859 -0.0449627 -0.0282324 
8.79573 -0.376709 14.5805 191 191 191 0.998206 -0.0537577 0.0263518 
8.72216 -0.749551 15.2174 191 191 191 0.994321 -0.106419 -0.00107494 
8.79153 -0.426657 15.8814 191 191 191 0.997963 -0.0580825 -0.0264011 
8.7958 -0.059781 16.5159 191 191 191 0.999928 -0.0109011 -0.00495505 
8.798 -0.373745 17.1439 191 191 191 0.998081 -0.0578445 0.0220861 
8.80572 0.352105 17.1367 191 191 191 0.998446 0.0512291 0.0219553 
8.72601 0.775901 17.7457 191 191 191 0.993889 0.109948 0.00979737 
8.70253 1.17171 18.3572 191 191 191 0.985745 0.168243 0.00112915 
8.78445 0.433952 18.3762 191 191 191 0.997999 0.063217 -0.00103634 
8.53526 1.88604 18.357 191 191 191 0.96282 0.270074 0.00605547 
8.22062 2.74334 16.431 191 191 191 0.916599 0.399807 -0.00128555 
8.58636 1.73421 13.3003 191 191 191 0.96852 0.247873 -0.0229736 
8.65751 1.37805 13.9461 191 191 191 0.979409 0.201881 -0.0011536 
8.72764 1.04597 13.306 191 191 191 0.987811 0.153811 -0.0239262 
8.09191 3.07206 13.3108 191 191 191 0.897799 0.440356 -0.00657247 
8.38165 2.40639 13.3067 191 191 191 0.938252 0.345672 -0.0139282 
7.70572 3.76111 14.567 191 191 191 0.842882 0.538096 -0.00134861 
7.46036 4.06045 13.9593 191 191 191 0.812439 0.583045 -0.00136544 
7.73756 3.71523 13.3149 191 191 191 0.846097 0.533028 0.00134944 
7.26117 4.37805 13.3256 191 191 191 0.786061 0.618111 0.00688319 
7.08631 4.55557 12.6544 191 191 191 0.756234 0.6543 -0.00137747 
7.26704 4.37087 12.0098 191 191 191 0.782336 0.622844 -0.00412479 
7.7129 3.75821 12.0274 191 191 191 0.844879 0.534955 0.00134749 
7.89272 3.38966 12.6771 191 191 191 0.875906 0.482479 -0.00132914 
8.18369 2.82656 11.3734 191 191 191 0.912103 0.409861 0.00910802 
8.06725 3.11504 12.0233 191 191 191 0.894671 0.446677 0.00658815 
8.05237 3.18152 10.6926 191 191 191 0.89139 0.453001 0.014613 
7.89557 3.4497 10.0121 191 191 191 0.621816 0.350894 0.700155 
8.34862 2.5245 10.6924 191 191 191 0.928826 0.370249 0.0140925 
8.42381 2.28662 10.0112 191 191 191 0.673235 0.233828 0.701483 
8.66477 3.52002 10.0056 191 191 191 0.00690992 0.00493566 0.999964 
8.34303 4.09025 10.0061 191 191 191 0.00890162 0.00494534 0.999948 
9.3227 2.1924 10.0052 191 191 191 0.00689638 0.000985198 0.999976 
9.1162 2.78524 10.0056 191 191 191 0.00690997 0.00296142 0.999972 
9.56367 3.4258 9.9996 191 191 191 0.00294404 0.00294404 0.999991 
10.2842 3.37754 9.99948 191 191 191 0.00294405 -0.00098135 0.999995 
9.45821 1.47144 10.0053 191 191 191 0.00689638 0.000985198 0.999976 
10.1506 1.97007 9.99959 191 191 191 0.00689638 0.000985198 0.999976 
9.55614 0.833724 10.0053 191 191 191 0.00689638 0.000985198 0.999976 
9.54678 -0.570291 10.0049 191 191 191 0.00688282 -0.00098326 0.999976 
9.56874 0.090331 10.0053 191 191 191 0.00688282 -0.00098326 0.999976 
8.39927 -3.85869 10.0052 191 191 191 0.00692359 -0.00494542 0.999964 
9.36874 -3.72275 9.99961 191 191 191 0.00294983 -0.00294983 0.999991 
8.95464 -3.18929 10.0052 191 191 191 0.00689636 -0.00295558 0.999972 
9.21171 -2.60875 10.0044 191 191 191 0.00688282 -0.00098326 0.999976 
10.0858 -2.37454 9.9996 191 191 191 0.00689638 -0.000985198 0.999976 
10.2987 0.505717 9.99964 191 191 191 0.00688282 0.00098326 0.999976 
11.79 -3.25378 9.25821 191 191 191 0.999917 0.000989037 0.0128575 
11.7901 -2.62752 9.25807 191 191 191 0.999917 -0.000989037 0.0128575 
11.79 -3.9116 9.30961 191 191 191 0.999913 0.00297298 0.0128829 
11.7996 -3.60291 8.58015 191 191 191 0.999976 0.00098326 0.00688282 
11.0698 -4.64606 9.99286 191 191 191 0.00886664 0.000985182 0.99996 
11.7833 -4.24823 9.98699 191 191 191 0.705724 0.00138106 0.708486 
11.7928 -4.59736 9.30893 191 191 191 0.999936 0.00296717 0.0108796 
11.7928 -5.29258 9.34731 191 191 191 0.999941 -0.000987108 0.0108582 
11.7922 -6.00708 9.34772 191 191 191 0.999941 -0.000987108 0.0108582 
11.7854 -5.64848 9.98672 191 191 191 0.705724 -0.00138106 0.708486 
11.1777 -5.33881 9.99284 191 191 191 0.0108582 0.000987108 0.999941 
11.1771 -6.0533 9.99325 191 191 191 0.00888415 -0.000987127 0.99996 
8.27319 -5.08236 9.99961 191 191 191 0.00294983 -0.00294983 0.999991 
7.96412 -4.49109 10.0055 191 191 191 0.00692359 -0.00494542 0.999964 
7.19975 -4.46348 11.8489 191 191 191 0.767655 -0.640861 -0.0013782 
6.68955 -5.01404 11.8254 191 191 191 0.701544 -0.712614 -0.00415115 
6.19495 -5.45584 11.8489 191 191 191 0.624527 -0.781002 -0.00137259 
6.32576 -7.16162 9.9995 191 191 191 0.000979427 -0.00293828 0.999995 
6.78512 -7.77203 9.99947 191 191 191 -0.000977516 -0.000977516 0.999999 
6.0754 -7.90996 9.99947 191 191 191 -0.000977516 -0.000977516 0.999999 
6.00076 -9.25445 9.99075 191 191 191 0.000989037 -0.0128575 0.999917 
6.11365 -9.98683 9.98337 191 191 191 0.00138106 -0.708486 0.705724 
5.86401 -8.6293 9.99942 191 191 191 0.00098326 -0.00688282 0.999976 
5.33002 -9.36339 9.99073 191 191 191 0.00297298 -0.0128829 0.999913 
4.8244 -9.98514 9.98355 191 191 191 -0.00138106 -0.708486 0.705724 
4.68764 -9.35999 9.99222 191 191 191 -0.000987108 -0.0108582 0.999941 
3.45037 -8.32553 9.99954 191 191 191 0.00296142 -0.00690997 0.999972 
4.14298 -9.05595 9.99226 191 191 191 -0.000985198 -0.00689638 0.999976 
3.48941 -9.25132 9.99232 191 191 191 0.00296137 -0.00888411 0.999956 
3.61681 -9.98252 9.98609 191 191 191 0.00138106 -0.705724 0.708486 
0.370697 -6.85745 10.6453 191 191 191 -0.181161 -0.982947 0.0315572 
-0.224633 -6.737 10.6434 191 191 191 -0.2972 -0.9543 0.0313502 
0.288793 -6.85264 10.0105 191 191 191 -0.142958 -0.687702 0.711779 
-0.820974 -6.51076 10.0095 191 191 191 -0.271994 -0.637834 0.720546 
-0.739069 -6.51557 10.6443 191 191 191 -0.387636 -0.921129 0.0354786 
-1.35431 -7.24304 10.005 191 191 191 -0.00295562 -0.00492603 0.999984 
-1.95826 -6.74317 10.005 191 191 191 -0.00296142 -0.00690997 0.999972 
-1.97715 -7.69689 9.99957 191 191 191 -0.00294404 -0.00294404 0.999991 
-2.07719 -8.45048 9.99946 191 191 191 0.00098135 -0.00294405 0.999995 
-1.03561 -9.08864 9.99316 191 191 191 -0.00098326 -0.00688282 0.999976 
-1.62767 -9.08884 9.99343 191 191 191 0.000985198 -0.00689638 0.999976 
-0.361378 -9.20422 9.99317 191 191 191 -0.000985182 -0.00886664 0.99996 
0.429694 -7.7005 10.006 191 191 191 -0.00295558 -0.00689636 0.999972 
0.675168 -8.46574 9.9996 191 191 191 -0.000985182 -0.00886664 0.99996 
0.277526 -9.2056 9.99266 191 191 191 0.000985182 -0.00886664 0.99996 
0.977428 -9.24343 9.99271 191 191 191 -0.000985182 -0.00886664 0.99996 
-0.059118 -9.98191 9.98627 191 191 191 -0.00138106 -0.705724 0.708486 
0.181044 -9.99141 9.2775 191 191 191 -0.000989037 -0.999917 0.0128575 
1.226 -9.98357 9.98576 191 191 191 -0.00138106 -0.705724 0.708486 
0.967428 -9.99144 9.30986 191 191 191 -0.000989061 -0.99994 0.0108797 
1.61365 -9.9917 9.30985 191 191 191 -0.000987108 -0.999941 0.0108582 
-0.178073 -9.99962 7.21632 191 191 191 0.000979427 -0.999995 -0.00293828 
0.177911 -9.99959 7.93528 191 191 191 -0.000977516 -0.999999 0.000977516 
0.568685 -9.99955 8.60159 191 191 191 -0.00098326 -0.999976 0.00688282 
-0.38217 -9.99483 6.46689 191 191 191 0.00098326 -0.999976 -0.00688282 
0.369424 -9.99487 6.5519 191 191 191 0.000985198 -0.999976 -0.00689638 
2.42463 -9.9917 9.29921 191 191 191 0.000989061 -0.99994 0.0108797 
3.01433 -9.99144 9.2999 191 191 191 0.000989061 -0.99994 0.0108797 
2.00127 -9.98866 5.9997 191 191 191 -0.0238897 -0.698423 -0.715286 
2.37855 -9.99392 6.67521 191 191 191 -0.000985182 -0.99996 -0.00886664 
3.1392 -9.99388 6.58137 191 191 191 -0.000985182 -0.99996 -0.00886664 
3.79358 -9.99406 6.41085 191 191 191 -0.00295558 -0.999972 -0.00689636 
3.29612 -9.98831 5.80685 191 191 191 -0.182628 -0.695215 -0.695215 
3.69759 -9.34093 5.71696 191 191 191 -0.316222 -0.00620043 -0.948665 
3.1144 -8.02958 5.85651 191 191 191 -0.219767 -0.0225707 -0.975291 
3.43484 -7.38225 5.73651 191 191 191 -0.264338 0.00603511 -0.964411 
3.76512 -8.04603 5.67758 191 191 191 -0.325224 -0.0138126 -0.945536 
3.77049 -6.77687 5.68054 191 191 191 -0.329785 0.0189531 -0.943866 
4.74152 -5.12614 5.18177 191 191 191 -0.482667 0.0093592 -0.875754 
5.07318 -5.75303 5.03465 191 191 191 -0.56191 0.00957025 -0.827143 
4.40653 -5.63495 5.40287 191 191 191 -0.442311 -0.0225805 -0.896577 
4.09681 -6.20844 5.52964 191 191 191 -0.392363 -0.00385931 -0.919802 
4.41188 -6.83027 5.40666 191 191 191 -0.443437 0.017208 -0.89614 
5.48855 -6.16305 4.65994 191 191 191 -0.622844 0.00412479 -0.782336 
4.76166 -7.3424 5.17801 191 191 191 -0.48994 0.00400496 -0.871747 
5.08798 -6.77397 5.02711 191 191 191 -0.55562 -0.00955611 -0.831382 
5.04602 -7.94683 5.04971 191 191 191 -0.527155 -0.0121964 -0.849682 
4.36993 -8.00313 5.42927 191 191 191 -0.433929 -0.0145083 -0.90083 
4.04948 -8.65047 5.54927 191 191 191 -0.37997 -0.0063968 -0.924977 
4.30239 -9.29803 5.46865 191 191 191 -0.420452 -0.00650855 -0.907291 
4.89427 -9.29824 5.16149 191 191 191 -0.516466 -0.00674237 -0.856281 
4.54238 -9.9887 5.32917 191 191 191 -0.330122 -0.697648 -0.635851 
5.19321 -8.67953 4.92939 191 191 191 -0.56878 -0.00409194 -0.82248 
5.76989 -9.99433 5.36186 191 191 191 -0.00493566 -0.999964 -0.00690992 
5.11814 -9.99431 5.91272 191 191 191 -0.00493566 -0.999964 -0.00690992 
4.52627 -9.9941 6.21988 191 191 191 -0.00295558 -0.999972 -0.00689636 
3.57954 -9.99067 9.29885 191 191 191 0.000989061 -0.99994 0.0108797 
4.35004 -9.99067 9.21086 191 191 191 -0.000989061 -0.99994 0.0108797 
4.99241 -9.99405 9.20937 191 191 191 -0.00296137 -0.999956 0.00888411 
5.21771 -9.99956 8.4836 191 191 191 -0.00098135 -0.999995 0.00294405 
5.69207 -9.99404 9.25629 191 191 191 0.000985182 -0.99996 0.00886664 
6.33895 -9.99234 9.2576 191 191 191 0.000987127 -0.99996 0.00888415 
7.65878 -9.99952 7.85858 191 191 191 0.000977516 -0.999999 0.000977516 
6.9671 -9.99955 7.90078 191 191 191 0.000977516 -0.999999 0.000977516 
6.6804 -9.99952 8.5595 191 191 191 -0.000981342 -0.999987 0.00490671 
7.10198 -9.99231 9.28657 191 191 191 -0.000987108 -0.999941 0.0108582 
7.75699 -9.99236 9.28592 191 191 191 0.000987127 -0.99996 0.00888415 
8.19032 -9.99945 8.42775 191 191 191 0.000981342 -0.999987 0.00490671 
8.50387 -9.99232 9.12521 191 191 191 0.000985182 -0.99996 0.00886664 
8.67497 -9.98605 9.9821 191 191 191 0.00138106 -0.708486 0.705724 
9.1083 -9.99314 9.12392 191 191 191 -0.000985198 -0.999976 0.00689638 
8.40566 -9.99948 7.69786 191 191 191 0.000977516 -0.999999 0.000977516 
9.0312 -9.9995 7.35326 191 191 191 0.000977516 -0.999999 0.000977516 
8.49967 -9.99957 6.78409 191 191 191 0.000977516 -0.999999 0.000977516 
9.80135 -9.99315 9.27548 191 191 191 -0.000985182 -0.99996 0.00886664 
10.423 -9.9923 9.2781 191 191 191 0.00494534 -0.999948 0.00890162 
9.9011 -9.98601 9.98343 191 191 191 -0.00138377 -0.707106 0.707106 
10.5218 -9.26021 9.99271 191 191 191 0.00296137 -0.00888411 0.999956 
9.9001 -9.26106 9.9901 191 191 191 -0.00296717 -0.0108796 0.999936 
9.24821 -9.251 9.9901 191 191 191 0.000989037 -0.0128575 0.999917 
8.64377 -9.25019 9.99138 191 191 191 0.000989061 -0.0108797 0.99994 
9.3935 -7.13397 9.99938 191 191 191 0.000977516 -0.000977516 0.999999 
9.70633 -6.45532 9.9994 191 191 191 0.000977516 -0.000977516 0.999999 
10.382 -6.43752 9.99936 191 191 191 0.00490671 -0.000981342 0.999987 
10.9896 -6.7472 9.99323 191 191 191 0.00886664 -0.000985182 0.99996 
11.7838 -7.00384 9.98706 191 191 191 0.705724 -0.00138106 0.708486 
11.1534 -9.98601 9.40113 191 191 191 0.00693712 -0.999936 0.00891915 
11.7838 -9.98671 8.1973 191 191 191 0.705724 -0.708486 -0.00138106 
11.0536 -9.99315 8.69319 191 191 191 0.00692359 -0.999964 0.00494542 
11.0536 -9.993 8.07427 191 191 191 0.00886664 -0.99996 -0.000985182 
11.791 -8.14096 9.27318 191 191 191 0.99994 0.000989061 0.0108797 
11.7911 -7.37202 9.37421 191 191 191 0.999917 -0.000990998 0.012883 
11.7921 -6.73116 9.37428 191 191 191 0.999917 -0.000989037 0.0128575 
11.7915 -9.31189 8.06888 191 191 191 0.999917 -0.0128575 0.000989037 
11.7916 -9.3881 7.22924 191 191 191 0.999917 -0.0128575 0.000989037 
11.7916 -9.38813 6.52829 191 191 191 0.999917 -0.0128575 -0.000989037 
11.7916 -9.23361 5.81207 191 191 191 0.99994 -0.0108797 -0.000989061 
11.7994 -8.67418 4.81071 191 191 191 0.999972 -0.00689636 0.00295558 
11.791 -9.23438 5.13914 191 191 191 0.99994 -0.0108797 0.000989061 
11.7995 -6.10888 5.02837 191 191 191 0.999999 -0.000977516 0.000977516 
11.7994 -7.10224 5.71881 191 191 191 0.999999 0.000977516 0.000977516 
11.7994 -7.53125 6.97062 191 191 191 0.999999 0.000977516 0.000977516 
11.7994 -6.85184 6.90695 191 191 191 0.999999 0.000977516 0.000977516 
11.7994 -6.34115 5.64904 191 191 191 0.999999 -0.000977516 0.000977516 
11.7994 -6.57376 6.2661 191 191 191 0.999999 0.000977516 0.000977516 
11.7995 -5.58041 5.57564 191 191 191 0.999999 -0.000977516 0.000977516 
11.7994 -5.0253 6.08568 191 191 191 0.999999 -0.000977516 0.000977516 
11.7996 -4.79304 5.465 191 191 191 0.999991 0.00294983 -0.00294983 
11.7929 -4.04538 5.3053 191 191 191 0.999948 0.00494534 -0.00890162 
11.7901 -1.98853 9.27472 191 191 191 0.999917 -0.000990998 0.012883 
11.7911 -1.3179 9.27474 191 191 191 0.999917 -0.000989037 0.0128575 
11.7994 -1.68868 7.12843 191 191 191 0.999987 0.000983272 -0.00491636 
11.7922 -1.941 6.42241 191 191 191 0.999948 0.00494534 -0.00890162 
11.7879 -2.13466 5.61049 191 191 191 0.699115 0.247768 -0.670708 
10.9922 -1.69884 5.77948 191 191 191 0.003637 0.2752 -0.96138 
10.9951 -2.3082 5.55769 191 191 191 0.0115523 0.378658 -0.925465 
10.4148 -2.43504 5.47838 191 191 191 0.0276725 0.412453 -0.910559 
9.75547 -2.51515 5.42673 191 191 191 0.00390518 0.420458 -0.907304 
9.45602 -1.92482 5.7112 191 191 191 -0.00373469 0.327408 -0.944876 
10.4052 -1.25948 5.85996 191 191 191 0.008178 0.209123 -0.977855 
11.198 -1.08594 5.91276 191 191 191 -0.010234 0.167156 -0.985877 
8.97194 -1.30202 5.84904 191 191 191 -0.00351215 0.221266 -0.975207 
9.71531 -1.24956 5.86453 191 191 191 0.00116659 0.215818 -0.976433 
9.92111 -0.636672 5.9978 191 191 191 -0.00539771 0.106875 -0.994258 
7.58928 -1.42026 5.82479 191 191 191 -0.00118037 0.237255 -0.971447 
8.27495 -1.35562 5.84357 191 191 191 -0.00353072 0.229497 -0.973303 
8.53424 -0.680355 5.9969 191 191 191 -0.0010855 0.116148 -0.993231 
6.92891 -1.44764 5.82148 191 191 191 0.00594954 0.243931 -0.969774 
5.41047 2.03667 5.59824 191 191 191 0.00631094 -0.347102 -0.937806 
6.08444 2.33094 5.52918 191 191 191 0.0300933 -0.391213 -0.919808 
6.04794 1.70146 5.76211 191 191 191 0.0260826 -0.286908 -0.957603 
6.77874 2.5437 5.43113 191 191 191 -0.0013021 -0.430994 -0.902354 
6.14127 2.87892 5.26726 191 191 191 0.0229449 -0.481844 -0.875957 
7.45395 2.51292 5.4397 191 191 191 -0.00653303 -0.429874 -0.902865 
6.66529 1.3258 5.84586 191 191 191 -0.00352019 -0.221772 -0.975092 
10.8975 2.90355 9.99472 191 191 191 0.00688282 -0.00098326 0.999976 
11.1666 3.59007 9.99465 191 191 191 0.00688282 -0.00098326 0.999976 
11.7804 2.47746 9.98888 191 191 191 0.704333 -0.00138376 0.709868 
10.8981 2.26494 9.99372 191 191 191 0.00688282 -0.00098326 0.999976 
11.7819 3.91821 9.98858 191 191 191 0.704333 -0.00138376 0.709868 
11.7903 2.14772 9.25847 191 191 191 0.999917 0.000990998 0.012883 
11.7996 1.75936 8.62933 191 191 191 0.999976 0.00098326 0.00688282 
11.7996 1.98414 7.96019 191 191 191 0.999999 -0.000977516 -0.000977516 
11.7995 2.03819 7.12436 191 191 191 0.999995 -0.00098135 -0.00294405 
11.7995 3.72312 6.91532 191 191 191 0.999999 0.000977516 0.000977516 
11.7942 1.38901 6.63691 191 191 191 0.999976 -0.000985198 -0.00689638 
11.7942 1.91552 6.36996 191 191 191 0.999972 -0.00296142 -0.00690997 
11.7942 0.785371 6.6187 191 191 191 0.999976 -0.00098326 -0.00688282 
11.7889 0.596466 5.95242 191 191 191 0.691991 -0.0739865 -0.718104 
11.1502 0.960881 5.9368 191 191 191 -0.00789501 -0.161284 -0.986876 
11.792 4.28287 5.10527 191 191 191 0.999936 -0.00891915 -0.00693712 
11.7949 4.75452 4.67721 191 191 191 0.999964 -0.00690992 -0.00493566 
11.7873 4.12642 4.35147 191 191 191 0.707388 -0.477695 -0.52097 
9.93246 3.55352 4.8448 191 191 191 0.00685056 -0.590518 -0.806995 
9.9187 2.77151 5.31863 191 191 191 0.0174428 -0.481691 -0.876168 
9.35946 3.05762 5.1059 191 191 191 -0.00134353 -0.517259 -0.855828 
8.7909 2.71506 5.3547 191 191 191 -0.0201297 -0.476403 -0.878997 
8.15421 2.54432 5.41992 191 191 191 0.00916768 -0.430881 -0.902362 
7.53583 3.1231 5.14944 191 191 191 -0.0013423 -0.5141 -0.857729 
9.95841 4.19101 4.29021 191 191 191 -0.00973995 -0.688753 -0.72493 
9.33484 4.3069 4.1454 191 191 191 0.0013835 -0.720806 -0.693136 
8.68731 4.52966 3.93561 191 191 191 0.0069266 -0.75777 -0.652485 
7.60717 3.56913 4.81948 191 191 191 -0.0152523 -0.614253 -0.788962 
6.90691 3.53771 4.83925 191 191 191 -0.00136871 -0.595391 -0.803435 
6.19625 3.42959 4.92674 191 191 191 0.0178391 -0.561244 -0.827458 
5.90155 6.21195 4.3385 191 191 191 -0.683251 0.00138031 -0.730182 
6.2968 7.36574 3.9127 191 191 191 -0.76164 -0.0124859 -0.64788 
6.64516 6.78636 3.5519 191 191 191 -0.804334 -0.0179971 -0.593906 
6.12675 6.77009 4.16207 191 191 191 -0.723506 -0.00415013 -0.690305 
5.55319 6.79134 4.69931 191 191 191 -0.624185 0.00413368 -0.781265 
7.02326 6.4148 2.94479 191 191 191 -0.86881 -0.00400373 -0.495129 
7.11588 7.209 2.7192 191 191 191 -0.889364 -0.00131758 -0.457199 
7.71291 5.29408 2.85196 191 191 191 -0.00937867 -0.872216 -0.489031 
8.14616 5.51157 2.41789 191 191 191 -0.0090598 -0.917628 -0.397337 
8.36003 5.71607 1.827 191 191 191 -0.00865243 -0.953004 -0.302835 
8.3804 5.90057 1.19634 191 191 191 -0.00115774 -0.97829 -0.207235 
7.74397 5.94378 0.769457 191 191 191 -0.691228 -0.697386 -0.189357 
7.36057 7.77666 2.27691 191 191 191 -0.922424 0.00384878 -0.386161 
7.5513 7.79075 1.68809 191 191 191 -0.962425 0.0109505 -0.271328 
7.73397 9.26476 0.957792 191 191 191 -0.989539 0.0100404 -0.143913 
7.67655 9.98403 1.20137 191 191 191 -0.70167 0.698665 -0.139733 
8.33257 9.99182 1.60751 191 191 191 -0.0109012 0.999936 -0.00297305 
8.4379 9.99183 1.08142 191 191 191 -0.0108797 0.99994 -0.000989061 
8.77197 9.99961 2.11701 191 191 191 -0.00492603 0.999984 -0.00295562 
9.37205 9.99964 2.11862 191 191 191 0.000977516 0.999999 -0.000977516 
9.05009 9.99963 2.74808 191 191 191 -0.000977516 0.999999 0.000977516 
9.49137 9.99962 3.38522 191 191 191 0.000977516 0.999999 0.000977516 
9.99214 9.99953 3.84189 191 191 191 0.000977516 0.999999 0.000977516 
10.1509 9.99956 3.20636 191 191 191 0.000977516 0.999999 0.000977516 
8.63952 9.99959 3.98348 191 191 191 -0.000977516 0.999999 -0.000977516 
8.89129 9.9996 3.38361 191 191 191 -0.000977516 0.999999 0.000977516 
5.65623 9.99965 6.20107 191 191 191 -0.000983272 0.999987 -0.00491636 
6.08613 9.99962 6.66251 191 191 191 0.000977516 0.999999 0.000977516 
8.05322 9.9996 6.81951 191 191 191 0.000977516 0.999999 0.000977516 
8.78737 9.99957 6.84645 191 191 191 0.000977516 0.999999 0.000977516 
8.50416 9.99963 6.21865 191 191 191 0.000977516 0.999999 0.000977516 
8.2291 9.99966 5.65757 191 191 191 0.000977516 0.999999 0.000977516 
8.96325 9.99964 5.6845 191 191 191 0.000977516 0.999999 0.000977516 
9.42569 9.99956 6.89864 191 191 191 0.000977516 0.999999 0.000977516 
8.97475 9.99953 7.4995 191 191 191 0.000977516 0.999999 0.000977516 
7.69158 9.99956 7.40032 191 191 191 0.000977516 0.999999 0.000977516 
7.40837 9.99961 6.77252 191 191 191 0.000977516 0.999999 0.000977516 
7.0357 9.99965 6.08237 191 191 191 -0.000977516 0.999999 0.000977516 
6.67406 9.99961 6.66318 191 191 191 0.000977516 0.999999 0.000977516 
6.4588 9.99957 7.35266 191 191 191 0.000977516 0.999999 0.000977516 
7.47369 9.9997 5.58626 191 191 191 0.000977516 0.999999 0.000977516 
6.73938 9.9997 5.47691 191 191 191 -0.00294983 0.999991 -0.00294983 
7.93278 9.99971 5.05211 191 191 191 0.000977516 0.999999 -0.000977516 
8.31732 9.99963 4.53481 191 191 191 0.000977516 0.999999 -0.000977516 
7.56191 9.99967 4.4635 191 191 191 -0.00294983 0.999991 -0.00294983 
9.01038 9.99963 4.57208 191 191 191 0.000977516 0.999999 -0.000977516 
7.23989 9.9937 3.82494 191 191 191 -0.00693723 0.999952 -0.00693723 
6.21692 8.02227 4.03537 191 191 191 -0.750045 0.00970484 -0.661315 
5.68517 9.99324 5.51061 191 191 191 -0.00494542 0.999964 -0.00692359 
6.07338 9.99363 5.21245 191 191 191 -0.00692351 0.999952 -0.00692351 
5.80696 8.00993 4.48072 191 191 191 -0.671241 -0.0181417 -0.741017 
5.16945 7.34895 4.93774 191 191 191 -0.563777 -0.00955554 -0.825872 
4.74813 7.97388 5.23662 191 191 191 -0.501756 -0.00941634 -0.864958 
5.35707 7.97441 4.82176 191 191 191 -0.58304 -0.0040963 -0.812433 
5.38565 8.63486 4.77961 191 191 191 -0.604591 -0.00411287 -0.796525 
3.93146 9.99261 6.29554 191 191 191 -0.00495505 0.999928 -0.0109011 
4.06779 9.99952 8.19304 191 191 191 -0.000977516 0.999999 0.000977516 
3.45897 9.97964 9.98929 191 191 191 0.00138376 0.704333 0.709868 
3.21387 9.17774 9.99384 191 191 191 -0.00098326 0.00688282 0.999976 
4.53289 7.54276 10.0044 191 191 191 0.0029498 0.00491634 0.999984 
5.49593 6.7463 10.0071 191 191 191 0.00495505 0.0109011 0.999928 
4.9785 6.97167 10.0045 191 191 191 0.00296137 0.00888411 0.999956 
5.51272 7.82788 9.99953 191 191 191 0.00293828 0.000979427 0.999995 
6.67599 7.03813 9.99959 191 191 191 0.000979427 0.00293828 0.999995 
5.98571 6.44242 10.0043 191 191 191 0.00493566 0.00690992 0.999964 
6.37735 7.88422 9.99946 191 191 191 0.000977516 0.000977516 0.999999 
7.3913 9.98164 9.98807 191 191 191 0.00138106 0.705724 0.708486 
6.78103 9.24761 9.99325 191 191 191 0.000985182 0.00886664 0.99996 
7.40665 9.24568 9.99418 191 191 191 -0.000985198 0.00689638 0.999976 
8.20053 9.19343 9.99426 191 191 191 -0.00098326 0.00688282 0.999976 
6.14188 9.98027 9.98903 191 191 191 -0.00138376 0.704333 0.709868 
6.58771 9.99953 8.00811 191 191 191 0.000977516 0.999999 0.000977516 
7.26151 9.99953 8.01921 191 191 191 0.000977516 0.999999 0.000977516 
