ply
format ascii 1.0
comment PCL generated
element vertex 1504
property float x
property float y
property float z
element camera 0
property float view_px
property float view_py
property float view_pz
property float x_axisx
property float x_axisy
property float x_axisz
property float y_axisx
property float y_axisy
property float y_axisz
property float z_axisx
property float z_axisy
property float z_axisz
property float focal
property float scalex
property float scaley
property float centerx
property float centery
property int viewportx
property int viewporty
property float k1
property float k2
end_header
-0.73310542 -3.5485923 -18.776854
1.1434128 -3.6767554 -18.9424
1.8033066 -3.4498503 -19.01255
3.4391189 -3.6615825 -18.994658
4.9390116 -3.6444941 -19.251371
6.507688 -3.0929291 -19.025953
7.2540269 -3.7266464 -19.222319
7.4646783 -3.3071754 -18.460333
7.634191 -3.7607901 -18.913153
-4.4525399 -1.6146995 -18.88047
-4.8820906 -2.2260208 -18.683912
-4.652133 -1.2743547 -19.153967
-2.8434358 -1.6432494 -18.891478
-2.064069 -1.9094597 -19.246574
-0.55011642 -2.1762159 -18.906712
0.71590453 -2.2103012 -19.177259
2.5301919 -2.1175692 -18.763527
3.4803972 -1.7272954 -18.871838
4.8476863 -1.9829468 -19.017735
6.0096993 -2.1620352 -18.774864
7.556314 -2.6582067 -19.144405
7.9873219 -2.4248877 -18.98522
-4.698154 -0.79397172 -19.306351
-5.1917386 -0.68532795 -18.767303
-2.939358 -0.34978956 -19.456589
-1.8219131 -0.59297144 -18.708784
-0.66524488 -0.55647421 -19.014999
0.63516963 -0.47412091 -18.787542
2.5716214 -0.67139667 -18.850773
3.3221614 -1.0371764 -18.994221
4.681273 -0.57432407 -19.061972
6.0824137 -1.2871071 -19.107096
6.9883442 -0.9904784 -19.102022
7.9079456 -1.9151187 -18.851936
-4.2948213 0.41473585 -19.045406
-5.4636049 0.85644257 -18.985403
-3.1800272 0.5574044 -18.800686
-2.0240285 0.62014091 -18.781923
-0.74337292 0.59107202 -19.024206
0.65109205 0.73096472 -19.164387
1.903698 0.72494859 -18.90814
3.5832863 0.66691697 -19.020687
4.2617426 0.38847533 -19.132744
6.1026821 0.46370274 -18.734943
7.5318193 0.75261974 -18.902117
7.4956374 0.28271011 -19.27882
-4.8224349 2.1702549 -19.006773
-5.0763745 1.2617056 -19.016203
-3.8548594 2.2312419 -18.489025
-2.1437719 2.3013697 -18.829443
-0.60619402 1.7183831 -19.185583
0.65647292 1.9424815 -18.820871
2.1982977 2.5307691 -19.151581
3.0201228 1.8464094 -19.346197
4.7360954 1.9256742 -19.218033
5.8718715 1.990315 -18.896015
6.7456923 1.5632923 -18.880041
7.3042769 1.6351992 -18.340492
-4.7646856 2.2944181 -18.779305
-4.0502877 2.662504 -18.843288
-4.0037575 2.957171 -18.597462
-1.8131218 3.5528646 -19.090101
-0.48986775 3.3810637 -18.731125
0.70352566 3.3592548 -19.203161
2.0497377 3.0792348 -18.880497
2.8770661 3.2662346 -19.225975
5.1402092 2.8794568 -18.98403
5.6530733 3.2851419 -19.298132
7.0383649 2.9756837 -18.689062
8.1184168 2.6321678 -19.027948
-3.4278698 4.4087286 -18.911867
-2.5938382 4.8691115 -18.693913
-2.2024064 4.5528979 -18.915253
-0.77140844 4.5049429 -19.216835
0.90855521 5.1230836 -19.735556
1.9736739 4.7849135 -18.771326
3.2316966 4.683495 -19.408119
4.2888145 4.7581415 -19.220942
5.714314 4.998817 -19.00613
6.2267876 4.394155 -19.387238
7.3379135 3.7661033 -19.336023
-2.2995 5.4752135 -18.836561
-1.3426495 6.2634254 -19.421137
-1.341784 5.5989523 -18.773312
0.18949454 5.9536147 -18.989212
1.7403332 5.6990914 -18.565792
2.7891502 5.299726 -18.854877
4.4192395 5.5796556 -18.823112
5.4935555 5.8153596 -18.808371
6.203054 6.1263304 -18.450533
-0.22730468 6.8493981 -18.737755
0.82536548 6.4249854 -19.13755
2.4123638 6.7500434 -19.138092
4.4266744 6.3580537 -19.314432
4.7228394 6.3971133 -19.278316
-0.50860399 -6.9026442 -17.364223
-0.97264576 -6.1526203 -19.247332
0.89681834 -6.8844876 -18.736967
2.0401096 -7.3680515 -19.068167
3.5686009 -7.3614578 -18.977314
4.2065263 -6.063859 -19.262026
5.9317527 -5.6009235 -17.438545
-2.3249583 -5.9330468 -18.499016
-2.5000906 -5.6745677 -19.182219
6.0330911 -5.5977426 -18.718597
6.4040151 -4.3664136 -16.955219
-3.6558011 -4.5985761 -19.019646
-4.3674989 -3.6045299 -19.301773
7.6688395 -4.5959854 -18.746088
7.6325135 -3.1832263 -19.078901
-4.7406764 -2.9794016 -17.270172
-4.9234748 -1.3177567 -18.00667
8.8478804 -2.3023014 -18.822918
-5.4093914 -0.58609289 -18.033672
8.8212633 -1.1037281 -18.90202
-5.3384223 0.49021316 -17.419886
9.1459503 0.65956128 -19.338041
-5.2494307 1.7088211 -17.108734
8.1937008 2.3081694 -18.947958
-4.9387212 2.777482 -19.242449
-4.0714312 3.2320549 -17.320393
7.9718003 3.2999654 -17.921
-4.3270292 4.0026865 -19.214422
-2.9111958 4.7078648 -19.119148
7.0972257 4.7682319 -19.015392
7.2130442 3.9984393 -17.358032
-2.0052602 5.5435205 -19.152943
-1.1248698 6.3104577 -17.352037
5.5284662 6.0762811 -18.145199
6.4313097 5.9774594 -17.494509
-0.2425583 6.6522985 -19.004099
0.64078355 6.5201831 -19.034056
2.0874808 6.9333158 -18.632423
3.4007473 6.6806345 -18.916143
4.5131488 6.1959472 -18.083273
-0.57676852 -6.37922 -15.853799
-1.4000696 -6.302856 -16.988199
0.47206879 -6.6245494 -15.927542
1.7001133 -7.1704473 -16.412285
3.4038424 -6.4721622 -16.497448
4.7247691 -6.4604855 -16.769941
4.9262481 -6.5208583 -15.702684
-2.5183458 -5.6796575 -15.500458
-3.3686593 -5.0762787 -16.77083
5.7705593 -5.5891867 -16.734737
6.7459855 -4.6193867 -15.70163
-3.5437279 -4.3526816 -15.581556
-4.2350931 -3.5283148 -17.029623
7.5287561 -4.3173852 -16.886911
7.6844535 -2.8616567 -16.740149
-4.7382364 -2.4262118 -15.427149
-4.7309389 -1.7439364 -16.915936
8.4075365 -2.1520271 -16.788748
-4.8140259 -0.29185891 -15.682102
8.2886724 -0.97973758 -16.874361
-5.1896267 0.52021074 -16.019258
8.9850378 1.2273339 -16.46932
-4.9074068 1.7297962 -15.263076
8.4747391 1.3273852 -15.906501
-4.6471763 2.6200471 -16.377724
-4.2645764 3.7915919 -15.926754
7.6554351 3.1563241 -15.733691
-3.4401929 3.9994156 -16.136929
-3.7713108 5.1294336 -15.375933
6.418879 4.7540107 -16.754147
7.1541586 3.9168117 -15.411316
-1.9157062 5.1372652 -17.003996
-1.2469835 6.3355966 -15.182563
5.0092974 5.6285248 -16.293808
6.332149 4.8549194 -16.001877
-0.32444984 6.5731993 -15.611725
0.73877853 6.7353282 -16.059883
2.3559961 6.867404 -16.246689
3.2371063 6.9229159 -16.190575
4.212914 6.5498929 -16.745539
-0.54210472 -6.9181089 -13.864651
-1.4019864 -6.0395293 -14.341206
0.63544118 -6.9991956 -14.558307
2.0590575 -7.3788152 -14.419702
3.4196074 -6.333652 -14.668428
4.3144956 -6.5191641 -14.871012
5.5476036 -6.186614 -14.090484
-2.2705445 -5.5220137 -14.401719
-2.9554996 -5.252758 -14.836741
6.2170959 -5.1110635 -14.876852
6.580893 -4.4852681 -14.246284
-3.49297 -4.4242115 -14.204109
-4.1917062 -3.8796861 -14.805369
7.9321532 -3.8700447 -15.151318
8.0116625 -2.7673249 -14.806084
-4.8023224 -2.8519371 -13.966453
-4.8235373 -1.8059531 -14.789827
8.8686991 -2.1651289 -14.423195
-5.0395956 -0.65867448 -14.560011
8.7337141 -1.0407526 -14.682562
-5.0409174 0.50944448 -14.253959
8.8550673 0.83407015 -14.321296
-5.4884143 1.5675077 -13.94803
8.2779331 1.7277205 -14.940872
-5.2886868 2.3238695 -14.601799
-4.1630168 3.8155861 -14.374049
7.5420341 2.8659213 -14.720703
-4.1834612 4.3429112 -14.719171
-2.8351512 5.0841331 -14.237322
6.8737454 5.163085 -14.589489
7.3624449 4.0323591 -14.262124
-2.4198472 5.846313 -15.004807
-1.2842515 6.074132 -13.827043
5.4428916 6.4949985 -15.328141
6.2205057 5.0993767 -14.288284
-0.1257305 6.5712042 -14.123065
0.88450992 6.7496018 -14.28405
2.2539892 7.0468478 -14.525308
3.3176036 7.0346165 -14.758508
4.6685557 6.4755549 -14.942697
-0.051062852 -7.0115838 -12.05577
-1.5937318 -6.515399 -13.282421
1.2373729 -7.0488353 -13.010098
2.1573336 -6.8705325 -13.22648
3.3494673 -6.7471957 -13.171658
4.4690633 -6.9817376 -13.251355
5.144793 -5.704298 -12.370689
-2.3849154 -5.46134 -12.751822
-2.7693231 -5.1515322 -13.823719
5.8155847 -5.8832059 -13.255865
6.8591371 -5.2305098 -12.382043
-3.6809611 -4.478251 -12.548491
-4.537467 -3.2346754 -13.67156
7.5633121 -3.9265311 -14.055288
8.014595 -2.7219887 -12.848415
-4.839879 -2.5953953 -12.724378
-4.8140044 -1.7820196 -13.734205
8.298336 -2.0944476 -13.186614
-4.7217999 -0.40525717 -12.676086
8.4542475 -0.73029441 -12.407769
-5.5540876 0.29734203 -12.693601
9.1012945 1.1890106 -12.920988
-4.7326236 1.579053 -12.064846
8.7263041 2.3465731 -12.833808
-4.9546113 2.7557545 -12.885299
-4.2434812 3.6411412 -12.813052
8.3511095 2.8490937 -12.702238
-3.689661 3.8789682 -13.193221
-3.2893326 5.1495695 -12.524445
6.9729533 4.4866548 -13.412649
7.5843515 4.1302223 -12.411155
-2.2977142 5.8848505 -13.639137
-2.1081526 6.4203477 -12.41328
5.7293291 5.8582311 -13.180359
6.1212173 5.2698636 -12.724327
0.15894008 6.1008177 -12.243094
1.2989726 7.2582035 -12.359488
2.2236352 6.4654655 -13.00906
3.553335 7.1444359 -12.865342
4.5264373 6.6631956 -13.109308
-0.25719517 -6.6133533 -9.863245
-1.3714342 -6.3362818 -11.641398
0.40744323 -6.9768519 -9.8811617
1.6177449 -7.4865055 -10.077099
2.9575615 -7.2268519 -9.9782143
4.5911665 -6.6742678 -11.877988
4.6081285 -5.9165053 -10.182605
-1.9768001 -5.4784598 -11.295908
-3.1464918 -5.0105853 -12.287075
5.9003572 -5.2450304 -11.307221
6.9263439 -4.8054767 -10.858623
-3.6065202 -4.0257883 -10.868233
-4.3287606 -2.7743542 -11.699002
7.5505514 -3.94644 -11.615841
8.1226692 -2.7938223 -11.490352
-4.7267485 -2.9696972 -10.226671
-5.3246803 -1.8562478 -11.23223
8.7974253 -2.1236794 -10.860618
-5.6862397 -0.4386701 -9.8691349
8.8413105 -1.1287951 -11.39482
-5.4570847 0.6194222 -10.506254
8.5645847 0.88587022 -11.735299
-4.7538238 1.7034009 -10.094456
8.0366211 1.4252502 -11.229815
-4.553906 2.2840924 -11.756839
-4.2536178 3.0845673 -10.414627
8.0716591 2.5074944 -10.764163
-4.0173535 4.4269648 -12.271637
-2.5620856 5.3444839 -11.524808
6.7046142 4.9800153 -11.549194
7.6923885 4.0103502 -10.614092
-1.9283723 5.6353011 -11.662737
-1.0984108 5.6831841 -9.9383888
5.3770618 6.0835276 -11.790917
6.1058884 5.3465047 -10.661772
-0.51034868 7.0052438 -9.8105288
1.0722203 7.3339725 -9.8978443
1.7988118 7.3982925 -10.229423
2.8384302 6.5520749 -9.9456615
4.3254776 6.275825 -11.133717
-0.54675335 -7.2618775 -9.8180962
-1.5612481 -6.3283339 -9.6608171
0.24891631 -7.3898082 -9.9932003
1.2361801 -6.7504673 -9.7933683
2.3953061 -6.9028783 -10.087861
4.2114778 -6.6113353 -10.196765
5.5820012 -6.0874572 -9.9642544
-2.7026846 -5.7751474 -9.7826681
-2.7279842 -4.959682 -9.3986197
5.8112383 -5.5591125 -9.9694023
6.9828925 -5.2588639 -10.368355
-3.0909085 -4.1620245 -10.049322
-4.4687572 -3.9310083 -10.187345
7.4641709 -4.0132027 -9.5075569
8.3418589 -3.171757 -9.9932318
-4.6526332 -2.6378825 -9.7990379
-5.2742443 -1.5869758 -10.219735
8.3905945 -1.4034874 -9.9444017
-5.2750497 -0.77404606 -9.8372755
8.7920408 -0.39798674 -10.293063
-5.1272759 1.0183696 -9.7030354
8.3320999 0.94302803 -9.5793772
-5.7117929 2.3593514 -9.9323349
8.7281361 2.5607219 -9.8933668
-4.9844112 2.7985911 -10.065713
-4.2477837 3.6391995 -9.7304287
7.9872999 2.9963489 -9.7765083
-3.6141024 4.3510976 -10.144316
-2.8967142 4.6636872 -9.9635315
7.044313 4.4822607 -10.063846
8.1292124 4.3264585 -10.050913
-2.512393 5.8172421 -10.065717
-1.933406 6.2347264 -9.7772732
5.5221725 6.1676307 -10.357179
6.2464862 5.4402852 -9.9295216
-0.75266719 7.0238595 -10.534145
1.0177425 7.4192338 -10.026567
1.6464244 6.6241927 -9.8020554
3.0807781 6.8426647 -9.9085884
4.4102101 6.6791258 -10.108712
-8.2704906 -9.9505463 -9.8318806
-8.3438864 -9.8480749 -9.3443613
-8.5721407 -8.7416115 -9.7368155
-5.6873178 -9.868557 -9.8371363
-6.7482529 -10.177784 -9.7958784
-4.2901907 -10.174337 -10.017842
-5.2177486 -9.4614592 -9.8032331
-3.8121066 -9.8092012 -10.25978
-3.2165627 -9.5431013 -9.8965464
-1.5903867 -10.032866 -9.8864193
-2.1839631 -10.008871 -10.087928
-0.45767033 -9.8778896 -9.8679733
-0.59760088 -10.178971 -9.9934464
0.98589569 -10.066376 -9.8355885
0.41024739 -9.6651573 -9.8703108
2.6554821 -9.8450499 -9.453474
1.2777667 -9.8999643 -9.7602739
4.1481352 -10.01048 -9.8987341
2.7881498 -9.8499556 -9.9613581
5.1071897 -9.8195877 -9.8892002
4.5990639 -9.5574389 -10.102573
7.1556091 -10.107138 -9.7231789
6.3322306 -10.113626 -9.9678202
8.0154657 -10.032207 -10.16447
7.6560459 -10.013309 -10.0157
9.7489977 -10.378211 -9.6075773
9.1994925 -10.379863 -10.068997
11.837063 -9.001565 -9.7541533
10.401242 -9.8495903 -10.027214
12.008613 -8.9257984 -9.5171595
11.816895 -10.024568 -10.080425
11.826767 -9.2152538 -8.6810551
-8.2992554 -7.8330793 -10.08417
-8.4781561 -7.5170369 -9.0893478
-6.7656894 -7.5429659 -10.084721
-4.2804213 -7.6530247 -9.5733738
-3.0540988 -8.1108961 -10.168034
-2.4975209 -7.9216018 -10.041656
-1.1164426 -7.6918864 -10.255628
0.86614764 -8.2854891 -9.8496695
2.0409448 -7.9332924 -10.044937
3.7519703 -8.3763351 -10.003032
4.8510733 -7.5615087 -10.587311
5.8407354 -7.9816265 -10.019248
7.855484 -7.2215033 -9.8584146
9.1654091 -7.6484537 -9.6501713
10.639309 -8.2922487 -10.415981
11.928157 -7.7014709 -9.6258726
11.811407 -8.1259136 -8.3446617
-8.1186323 -6.4535937 -10.193727
-7.9959736 -6.0352373 -10.557364
-6.1884241 -6.4574285 -9.8806992
-4.6908875 -5.8221397 -9.6168718
-3.6561873 -6.616272 -10.103209
-2.480237 -6.4326925 -10.35235
6.4554472 -5.972599 -9.8262377
7.9230156 -6.0903497 -9.7416582
9.2301912 -6.3816342 -10.280603
10.815508 -6.0692887 -10.236959
11.711771 -6.832583 -10.067677
11.581545 -7.3703837 -8.6827192
-8.2444239 -5.0623045 -10.308425
-7.8848748 -4.1656146 -10.233388
-6.8349566 -5.0742626 -9.9601831
-5.2934752 -5.1201305 -10.07253
-3.5643947 -5.2278957 -10.155218
7.8356071 -5.024858 -9.8050003
9.187191 -4.5020022 -9.7591982
10.730695 -4.7647386 -10.046524
12.101442 -4.8540835 -10.340749
11.820019 -5.2287784 -8.9490108
-8.1765108 -3.8236938 -9.5598812
-8.4747038 -3.4308562 -9.5350723
-6.8636432 -4.1229296 -10.125312
-5.4448881 -4.2824097 -10.064867
9.3546944 -2.6615546 -10.004859
10.6473 -3.3703535 -10.113294
11.606304 -3.6321642 -9.7119951
11.474835 -4.3000879 -8.7180033
-8.1852121 -2.2587256 -10.109393
-8.4543686 -1.4045794 -10.391864
-6.3192225 -2.2372797 -9.8766069
8.9358616 -1.0847945 -9.9929495
11.675207 -1.867118 -10.003778
12.288387 -2.1510205 -9.937418
11.833828 -2.8303201 -8.4686823
-8.2597628 -0.79979521 -9.9939795
-8.2610731 0.13265699 -9.7910795
-6.2339258 -1.3442317 -9.6048794
9.8843527 -0.3026745 -9.8923721
10.663037 -0.53821558 -9.7619171
11.437962 -1.0496292 -10.017894
11.399693 -1.7394929 -8.3639374
-8.3875637 0.38942981 -10.023516
-7.6574254 1.1153622 -10.065526
-6.6440115 0.49496889 -10.281049
9.3461657 1.6295226 -9.9582634
10.599486 1.3324354 -10.045259
11.928588 0.29619563 -10.0107
11.739319 0.21148172 -8.4638834
-8.3714046 2.3878183 -9.9312191
-8.3057613 2.4444447 -9.6674833
-6.592217 1.8241278 -9.9636297
9.6382837 2.5636752 -9.8468657
10.809297 2.5840313 -9.8639746
12.023351 2.0660956 -10.258821
11.515029 1.3485208 -9.0188332
-8.1972876 3.2758374 -10.372764
-7.9014316 3.4392304 -9.8618011
-6.5860081 3.3895047 -9.899827
-4.647738 3.0154276 -9.8590441
8.7940512 4.23246 -10.339282
10.574875 3.6814032 -10.118252
11.603709 3.3085892 -10.037395
11.191077 3.0184326 -8.7407455
-7.9550648 4.7889595 -9.9741993
-7.5313134 4.97545 -9.7729845
-6.59583 4.0928578 -10.420483
-4.6216054 4.6335816 -10.150128
-3.2820725 4.5161004 -10.120066
7.748858 5.2661963 -9.8915701
9.3748741 5.4640322 -10.131445
10.713825 5.1567707 -9.8692312
12.023285 4.8033509 -10.2572
11.747306 4.2162113 -8.6832571
-8.4968338 5.9964147 -10.48541
-8.2787409 6.2815967 -10.159323
-6.9515548 6.1412883 -10.023635
-4.4970403 6.2490416 -10.378827
-3.2447 6.4293437 -9.9464226
-2.4265139 5.9057169 -9.9570513
6.5682034 6.7345223 -10.109351
7.9349828 6.7232533 -10.07911
8.5596294 6.4373183 -9.8321819
10.616849 5.9716291 -10.442839
11.842697 6.3539896 -10.495687
12.023926 5.6190109 -8.7016964
-7.9632111 7.7778277 -9.712039
-8.2570457 8.0295095 -9.623313
-6.7777729 7.6587982 -9.2479773
-5.0996971 7.5419588 -9.9083395
-3.553592 7.717927 -10.218677
-2.1211171 7.6679096 -10.384624
-1.0329278 7.8238244 -9.9944153
0.82118702 7.9746342 -10.204026
1.2653322 8.2186947 -9.8618116
3.0406396 8.4446507 -9.6454611
4.5212436 8.3100138 -10.127074
6.8186049 8.4663277 -9.9734735
7.4217443 7.5835195 -10.011116
8.9598866 7.991991 -9.5728865
10.702095 7.656929 -9.8035212
11.728827 7.327549 -9.910985
11.884645 7.3666258 -8.8675156
-8.2720127 9.246664 -10.169029
-8.5030155 9.7378492 -8.5897064
-6.6791668 9.5991449 -10.051861
-5.6403203 9.8790731 -10.350444
-4.4047251 10.214544 -9.8813868
-2.5100503 10.126788 -10.125476
-1.4933523 10.004576 -10.099026
0.1229198 10.14263 -10.145391
1.599384 9.6900282 -9.6386051
3.0193031 10.034399 -9.7570686
4.1282945 9.9692879 -10.131789
5.9857888 10.328739 -9.9958591
7.3062925 10.500911 -9.889349
8.5593328 10.218121 -10.252872
10.424489 10.142785 -9.6105967
11.515316 8.9925823 -9.9179974
11.904842 8.3751431 -8.743187
-8.6964722 9.8374643 -9.6716003
-6.0185523 9.5150242 -9.722681
-4.7189932 9.94561 -9.7267275
-2.7455397 10.266285 -10.040994
-1.7399497 9.8313684 -9.9546061
0.19279474 10.022224 -10.645502
0.75393426 10.273539 -9.5831747
2.7223411 10.254938 -9.8420639
4.262795 10.03807 -9.7376604
5.0616179 10.082323 -9.6939011
6.6527896 10.115471 -10.208258
7.7503505 9.9457321 -10.156409
9.1878052 10.359917 -10.273672
11.494758 9.9403 -10.370526
11.48283 9.6594009 -8.7985735
-7.9269347 -9.7792673 -7.142046
-8.0700703 -9.30336 -8.1552935
-6.5085769 -9.7061138 -7.5880737
-5.0036016 -10.023112 -7.6627626
-3.5037115 -10.136985 -7.3321652
-2.6556172 -10.385271 -7.5361342
-0.69570571 -10.149609 -7.7811522
0.96095991 -10.365382 -7.6280804
1.8642682 -9.4817715 -7.5428762
3.0345268 -10.090261 -7.3449645
5.2406559 -9.6311007 -7.6515522
6.1185613 -10.048636 -8.1482534
7.4922113 -10.670992 -7.2159033
9.4848824 -9.8243771 -7.6714206
10.920449 -9.8543119 -7.9830422
11.351706 -10.009513 -8.310895
11.931535 -8.7751169 -7.5194683
-8.4936867 -7.9182329 -7.6167235
11.276653 -7.8127141 -7.3125081
-7.8733921 -5.7822862 -7.7139745
11.672808 -6.212657 -7.7729111
-8.4257917 -4.4502864 -7.4784503
11.04193 -4.4173508 -7.8232584
-8.3973656 -3.5308287 -7.6365123
12.031125 -3.9925308 -7.3617783
-7.9762073 -2.0577881 -7.8010511
11.641619 -2.0707452 -7.8644581
-8.1327133 -0.0034943223 -7.3124676
11.888597 -1.050668 -7.8158755
-8.2518606 0.6478495 -7.7343097
11.393937 0.4290902 -7.5077138
-8.001338 2.0538561 -7.6328902
11.821197 2.3947446 -7.6931324
-8.746191 3.3780334 -7.6908116
11.722922 3.9310892 -7.4737082
-8.3427896 4.9109573 -7.5777125
11.638388 5.0321622 -7.3967686
-8.0267706 5.6517839 -7.4634705
11.249006 6.0061049 -7.3369718
-8.2692738 7.871747 -7.6071773
11.453436 7.3521366 -7.1719637
-8.3374901 9.40977 -6.6531024
11.987339 9.0710745 -7.4124894
-7.8694539 10.255065 -7.6984763
-6.4791274 9.9035788 -7.865191
-5.0903988 10.067055 -7.9485264
-3.7868032 9.8379536 -7.0964994
-2.0218818 10.189495 -7.7227821
-1.1656427 9.8617506 -7.907968
0.71912277 9.8694487 -7.5854826
1.939984 10.179915 -7.8103466
3.3187778 10.081552 -7.5120783
5.0071931 10.176687 -8.1233835
6.5318871 9.9299726 -7.7321959
7.6342592 10.32074 -8.019105
9.345767 9.7241096 -7.3646655
10.756409 9.8898954 -7.7951303
11.392987 10.195477 -7.4114485
-8.3230524 -10.296828 -5.8044891
-8.1014948 -10.473161 -7.1006994
-6.2389579 -9.8077211 -6.4301872
-5.0481606 -9.8518839 -6.3216805
-3.2621341 -9.8325825 -6.5393138
-2.6039197 -10.038039 -6.518095
-1.354827 -9.3475447 -6.1761389
1.5413194 -10.179178 -6.1843061
2.2794073 -10.24904 -6.0306239
3.4128456 -10.39931 -6.6263146
4.6112123 -10.323905 -6.1360722
6.0453911 -9.9320097 -5.8377476
7.944602 -9.6673965 -6.0954642
9.0161085 -9.6365013 -6.4827518
10.579664 -9.6730719 -6.3162146
11.454149 -9.9217339 -6.3767357
11.455028 -8.6339607 -6.367722
-7.9958835 -7.5878839 -6.7111082
12.035064 -7.1982574 -6.1744204
-8.3913012 -5.9754839 -5.9855518
11.614394 -6.1662188 -5.9042687
-7.8539696 -4.6110768 -6.4750271
12.05342 -4.7480898 -6.5217886
-8.5679035 -3.3361588 -6.0575023
11.665201 -3.168968 -6.5834403
-8.2232056 -1.4223515 -6.4916043
11.879543 -1.702104 -6.4814329
-7.80971 -0.57342696 -6.7490621
11.869083 -0.44615352 -6.4671202
-8.4034157 0.67232752 -6.666851
11.750899 0.87844521 -6.3434944
-8.2363272 1.7754819 -6.5789623
11.405623 2.4565575 -6.3955197
-8.8704872 3.4015234 -6.1801696
11.83837 4.4306216 -6.3137355
-8.4286976 4.952157 -6.463336
11.958264 4.9834213 -6.5600591
-8.4290562 6.4641933 -6.1802063
12.231541 5.8656497 -5.9922071
-8.064537 7.448411 -6.0421643
11.826612 7.7654757 -6.1885676
-8.1889496 10.273844 -5.936378
11.540977 8.6787548 -6.4669328
-8.4104939 10.793966 -6.0668836
-6.4955673 9.8023748 -6.5285301
-5.0785656 10.434114 -6.1604314
-3.499783 10.0797 -6.3407941
-3.1035187 9.5640249 -6.0311985
-1.1419438 9.6747456 -6.2222586
1.0054379 9.9175653 -6.1302042
1.194117 10.10666 -6.0209894
2.4838653 9.9849825 -5.8069601
4.3926029 10.09722 -5.8743353
6.0516286 9.7146473 -5.9015856
7.7223916 10.198275 -6.1254945
8.8092117 9.4658594 -5.8234682
11.028955 9.8087196 -6.3009157
11.839956 10.219054 -6.5585804
-8.216568 -10.426459 -4.4040742
-7.8694806 -9.864706 -4.9034567
-6.9476957 -9.7122231 -4.7647901
-5.2409945 -10.522704 -4.7415042
-3.9868193 -10.263131 -5.1369362
-1.9106853 -10.137585 -4.7037373
-0.42331347 -9.8228579 -5.246232
-1.6712787 -8.7098246 -4.9057217
0.86591017 -9.9753218 -5.9669032
2.3804317 -9.6239462 -5.8141031
3.3583491 -9.7247105 -5.6366539
4.6573558 -9.3294134 -5.6607418
5.238842 -10.320005 -4.5898294
6.9799733 -9.8217678 -4.7350073
7.9108138 -9.9346914 -4.7735133
9.1485958 -10.326207 -5.2897243
11.054928 -9.9192457 -4.5563102
11.742472 -9.8152122 -5.4782004
12.024201 -9.0617037 -4.9134269
-8.2991047 -7.3956337 -5.1190138
-0.60641259 -7.8381233 -5.9464808
-1.3260003 -6.9589248 -4.9479032
0.82316029 -8.0369892 -5.9103427
2.1756473 -7.7850695 -5.8189831
3.6630523 -8.1577663 -5.6574516
4.5023179 -9.032671 -5.7594523
5.5174499 -8.6787996 -4.6176043
11.665993 -7.2876453 -4.5833716
-8.2691422 -6.1210876 -5.1822371
-0.66829741 -6.0626435 -5.7305989
-1.9053817 -5.5111327 -4.9900022
0.48412967 -6.2929096 -6.0239263
2.4377689 -5.9361639 -6.2352939
3.6389892 -6.289907 -6.4453096
4.7508273 -6.3031092 -5.4359932
5.5786357 -7.0467935 -4.3961186
11.31711 -5.6088495 -4.4536548
-8.0720482 -5.1996131 -4.7065525
-0.76374429 -4.0021234 -5.7297258
-1.3758684 -4.4748302 -4.8071518
1.0468185 -4.4770541 -5.5762525
2.2462904 -4.5196648 -6.0841537
3.1073773 -4.7767549 -6.34093
4.9874768 -4.990149 -5.2616816
6.1055937 -4.9532676 -4.3033552
11.628194 -4.4436212 -5.4192052
-7.8805046 -3.6353593 -4.4906211
-7.9427814 -2.8303061 -5.5324469
-8.4254599 -3.6104741 -4.4289598
-6.54598 -3.0889649 -5.3394084
-6.0075684 -3.5468597 -4.9118524
-4.3231215 -3.1470265 -5.0246415
-3.4653118 -4.2681704 -4.6368818
-2.8682873 -2.9952514 -5.0790129
-1.8657982 -4.0664134 -4.1755114
-1.3512104 -2.8070474 -5.1470947
-0.47008285 -2.7779441 -5.8612862
0.97843772 -3.3480339 -5.8305988
2.1663766 -3.1896057 -6.0695262
2.906847 -3.1006169 -5.8925762
4.7293859 -2.8953588 -5.5239401
5.7460794 -3.8228302 -4.1900058
5.3265538 -3.5182309 -5.4521475
7.621439 -4.2282367 -4.0733976
7.9150276 -2.9960022 -5.2435784
8.2879982 -4.2328601 -4.5442281
9.7588654 -2.7206469 -4.9551401
10.376674 -3.8249919 -4.5492549
11.507492 -3.4961517 -5.4774437
11.890066 -4.3578696 -4.4264507
12.089824 -3.639905 -5.7026548
-8.3189754 -1.2387748 -5.5714169
-7.2524023 -2.0921431 -6.1312943
-4.929873 -1.9133917 -5.8606086
-3.3278811 -2.4282322 -5.561264
-2.0774205 -1.934643 -5.9636092
-0.42315352 -2.3211865 -5.6592665
0.71018034 -1.6346158 -5.4518137
2.1184719 -2.1239614 -6.4621072
3.0829546 -1.3061643 -5.8269491
3.7762043 -1.7754292 -6.0326276
5.593195 -2.3862164 -6.0196524
7.4417686 -2.2261155 -5.4265575
9.6876383 -2.3135099 -5.3502836
11.036195 -1.6948171 -5.8559256
11.844518 -2.375977 -5.5714092
-7.8699093 -0.45902702 -6.6145124
-6.7084475 -0.41366875 -6.1814437
-5.1448298 -0.8796199 -5.8963227
-3.3722053 -0.75909424 -6.2270737
-2.1956105 -0.75985461 -5.835475
-0.38671091 -0.57927394 -5.9026084
0.78550589 -1.139951 -6.1513181
1.7611711 -0.44465995 -6.1613741
2.5656848 0.02779299 -5.9488378
4.6619554 -0.66415471 -6.4241648
6.1018348 -0.2836335 -5.5126967
8.2874899 -0.54471743 -6.1392922
9.3153648 -0.77622354 -5.9288945
11.123999 -0.32973507 -6.0960889
11.133463 -0.85089403 -6.0468302
-8.3970079 1.0150789 -6.1496663
-6.9130502 0.62213802 -6.1315217
-4.4273834 0.55789459 -5.9323339
-3.126658 0.65645522 -6.3328896
-1.6155349 0.40183532 -5.9206405
-0.50387627 0.72201759 -6.0389328
1.9590942 0.66124225 -5.6689558
1.9554044 0.73782045 -5.9150839
3.5963509 0.91736889 -6.062005
4.8556371 0.63002473 -5.9359946
6.3701072 0.85299718 -5.9853697
7.3636136 0.42073312 -5.8262086
9.0202599 0.93049467 -5.6973419
11.102215 0.79280984 -6.095654
11.551709 -0.38007963 -5.9759226
-8.1179447 2.4276171 -5.6763573
-6.924336 1.9952611 -5.8904424
-5.2177744 2.1411638 -5.3674569
-3.7714584 2.0387349 -6.0736923
-2.1072495 1.8200377 -5.7928319
-0.39337182 2.1335783 -5.8978653
0.66314274 1.1600326 -6.1549826
2.7160914 1.8654668 -6.422205
3.4510789 1.6445783 -5.2631021
3.9918735 2.2416968 -5.8443627
6.2818599 2.2406991 -5.2902446
7.4479928 1.5309646 -5.289238
9.3106441 1.8150159 -5.7110925
11.479406 1.7158329 -5.3792658
11.370457 1.00756 -6.3359818
-8.2604485 3.2667861 -5.2357087
-8.101903 3.0375319 -5.4436169
-5.6470847 3.1393123 -5.2746296
-4.0164313 3.1750023 -4.8081145
-1.7964613 3.1586604 -4.962461
-0.28480154 2.2703979 -5.4191518
0.22807014 3.4492753 -6.275156
1.7998646 3.3381052 -6.2279634
3.6515348 3.3128133 -5.8790779
4.7024055 2.6976986 -5.3760328
4.7646694 2.9875057 -5.1006727
6.8144269 3.1381147 -5.0423465
8.3776436 2.7595439 -5.3987107
10.14155 2.9118516 -5.4293733
12.103714 2.7627831 -5.3279028
-8.4090862 3.739954 -4.7742076
-8.1385422 5.752336 -5.1749134
-6.6762342 3.514008 -4.706943
-4.2772913 4.0482197 -4.8333831
-2.2784505 3.7473903 -4.3355584
-1.6861976 3.6529605 -4.6461039
-0.87778986 4.3903775 -5.0582581
-1.9743664 5.3013759 -4.795186
0.16249964 5.1986871 -5.9149547
2.0521102 4.5433474 -6.0613403
3.1063664 4.7130775 -5.6683164
4.5436082 4.0245337 -5.1751814
5.6169 4.0149097 -4.8626261
5.8120646 3.6360745 -4.6688781
8.3477335 3.651463 -4.6187625
9.7083683 3.6747921 -4.2309985
11.527796 4.130724 -4.5120859
11.547861 4.1552987 -5.3536301
11.196628 5.025238 -5.1607771
-7.8030176 6.6709714 -5.4741917
-0.80001605 6.4934373 -5.7995143
-1.2915404 6.8088851 -4.5337172
0.58091182 6.3259525 -5.2130361
1.6940433 6.4902091 -5.870769
3.2799301 6.6875491 -5.4622693
4.4408741 6.2500153 -5.7252121
5.6066856 5.690269 -5.0386143
11.758677 6.2676148 -4.9628601
-8.3894148 7.8149371 -4.6156173
-0.31066906 8.1770058 -5.3832083
-1.6389546 8.4005213 -5.3832455
1.0964031 7.8923645 -5.5998564
1.9567424 7.8349638 -5.7219143
3.7809231 8.2224636 -6.1196899
4.3712282 8.078536 -5.4006419
5.4142017 7.6718678 -4.4725852
11.638607 7.8164382 -4.8762403
-8.302249 10.229557 -4.2376313
-0.11349756 9.9921885 -5.9151659
-1.5098556 10.055788 -5.1798711
0.85383016 10.156313 -5.6727185
2.0658245 10.346699 -6.2711124
3.3361924 9.7856188 -5.9192896
4.4745431 10.016356 -5.5945134
5.9134703 10.213947 -4.5468178
12.195406 8.9893217 -5.1414871
-7.780787 10.297148 -5.0371127
-6.75003 9.7998857 -4.8162355
-5.0506053 9.7602186 -4.8712206
-3.4949222 9.7455616 -4.9681015
-2.0498061 10.122909 -4.7641768
6.0068808 10.114915 -4.6882305
7.2559319 9.5222492 -5.0715313
9.6323643 10.109833 -4.7884316
10.484792 10.358003 -4.5462265
11.532848 10.029652 -4.8729377
-8.4776077 -9.8205938 -3.3110681
-8.2441425 -9.9841089 -4.0257521
-6.7199721 -9.6005011 -3.8785577
-5.1669827 -9.5775023 -3.8282413
-2.4808502 -10.191357 -3.6788816
-2.4297831 -9.3519249 -4.4832535
-2.8882375 -8.8428268 -3.5114172
6.1562018 -9.6094875 -4.1042347
6.8140445 -10.083451 -3.239423
7.2925682 -10.099467 -3.086282
9.245904 -9.9854412 -3.0262918
10.75771 -9.6853685 -3.3303952
11.942238 -9.6772051 -3.5852652
11.810023 -8.5835934 -3.7180567
-8.2911749 -7.68683 -3.255136
-1.9381557 -7.7160625 -4.6411471
-2.6277552 -7.5948944 -3.6192703
6.1929955 -7.6762938 -3.7686818
6.5302515 -8.878891 -3.4652865
11.528998 -7.701396 -3.6937554
-8.3699236 -6.4698944 -2.8180089
-2.7980309 -6.1161304 -4.0771446
-2.6595314 -5.7483015 -3.3251591
6.9475656 -4.662416 -3.4423575
6.7844853 -6.7609978 -3.0214632
11.636744 -6.2367702 -3.2547946
-8.0421362 -5.5826654 -2.6055958
-7.9339738 -4.4446263 -4.3418236
-7.691977 -5.2923517 -3.0154326
-6.1530919 -4.4061055 -3.8759916
-5.5037894 -5.5636773 -3.3332124
-4.3455791 -4.3928499 -3.4696913
-3.6311343 -5.2657237 -2.4236078
-2.6430886 -4.6079912 -3.5726054
-1.8282641 -4.9549837 -4.2008381
6.4416313 -4.556962 -3.9444513
6.9111023 -5.1457233 -2.9162447
7.6069937 -4.8609204 -3.4203701
9.3636055 -5.4538541 -2.8428788
9.7346964 -5.092514 -3.5447443
11.771191 -5.0818257 -3.0399365
12.109936 -4.9297557 -3.7264223
11.631105 -5.7625303 -2.8607924
11.787269 -5.1302428 -3.9521163
-8.127758 4.6802645 -3.7797534
-8.3323374 4.9998288 -3.4800782
-5.7793865 4.7187839 -3.8917024
-2.8506477 4.8904681 -3.7378876
-2.563215 4.131094 -4.3498349
6.427207 4.6332436 -4.4961481
6.0639763 5.3199286 -3.8354111
8.9157896 4.7757092 -4.0200243
10.582765 4.6001863 -3.7313025
11.534152 4.8742604 -3.3777149
-7.8517985 5.1958518 -3.2126575
-8.2090044 6.493084 -4.2193003
-6.5617318 5.2228031 -3.518363
-4.4293008 5.2375655 -3.8118925
-3.3928165 5.0263734 -3.2275789
-2.5224247 5.1991034 -4.1106672
-3.3920498 6.7366204 -3.2188501
5.8115377 5.8137445 -3.8673162
7.1376028 5.2378092 -2.7290075
7.5029163 5.4752879 -2.7448676
9.8496122 5.1056757 -2.9509819
11.540104 5.2988853 -2.7502351
12.244356 5.6186399 -3.3909135
11.931157 6.6473794 -4.1205244
-8.4785576 7.9563894 -3.4213607
-2.0923746 7.4675612 -4.4191389
-2.4456797 8.1915798 -3.7183459
5.9678631 8.3337011 -4.1869478
7.1741552 6.931869 -3.3410163
11.520176 8.0132275 -4.1321554
-8.3215199 9.4683228 -2.5746777
-1.947353 8.993824 -4.1050014
-2.8405409 9.7182074 -3.9747977
6.3421664 9.9771013 -3.7430401
6.7670484 9.6203489 -2.8217511
11.753991 8.616683 -3.5719693
-7.9780173 10.030286 -3.6145353
-6.8015184 10.027624 -3.271729
-5.2789865 10.184111 -3.8702605
-3.5070047 10.17087 -3.0100145
7.0562911 10.253633 -3.6252062
9.4358988 10.294182 -3.188189
10.935771 9.7872477 -3.3415179
11.364777 10.376244 -3.1935985
-8.4859762 -10.195123 -1.9109857
-8.6202316 -10.23012 -2.3100066
-6.7201385 -10.520656 -2.0426519
-5.1391788 -10.182035 -2.9368606
-3.6608195 -9.9946709 -2.8383455
-3.2706838 -10.430588 -2.367784
7.8572445 -9.7925529 -1.4502051
7.1450982 -10.286045 -1.9739325
9.1148024 -9.9606104 -1.8414552
10.575074 -10.017918 -2.4867234
11.607524 -10.441182 -2.4759612
11.916886 -8.6568727 -2.3017597
-8.0841742 -7.2193093 -1.5185052
-3.5678763 -8.2981892 -2.8309264
-4.1785426 -8.6795692 -1.573006
6.7384992 -7.9983706 -2.2245603
11.474352 -7.7671051 -2.350719
-7.6028309 -6.4066987 -1.5349609
-3.6648831 -7.1772819 -2.521678
-3.8419263 -5.6966305 -1.4765872
7.9527001 -6.5716867 -1.5286109
12.114224 -6.4296904 -1.9572623
-8.0787983 -5.7517743 -1.569609
-6.9914508 -5.6957641 -1.7067791
-4.940094 -6.1752 -2.1304638
7.870513 -5.5616636 -1.8548005
9.1033983 -5.4196386 -1.9009622
10.992478 -5.5967493 -1.6563334
11.743343 -5.3896255 -1.5281479
-8.6318808 5.8826451 -1.9190998
-8.5465794 6.6653538 -2.6842773
-7.1825414 5.36659 -2.0679743
-3.715872 5.5809655 -2.4020536
-3.4471602 5.3764291 -3.3892102
-3.7456813 5.4658437 -1.5028969
7.1690421 5.2544169 -1.5077393
7.1363406 5.8881521 -2.0062907
9.2646856 5.797524 -1.4526441
11.119019 5.7294774 -1.4843206
11.666242 5.5192056 -2.2546396
11.926901 7.0940843 -2.4074571
-7.9642777 7.7870302 -2.3090379
-3.4830775 7.0658336 -2.5953996
-3.8162658 8.1692333 -1.9450779
7.411531 7.6842413 -2.5547009
11.976718 7.6150222 -2.1468444
-7.8948035 10.304519 -1.3678392
-3.6466253 9.0538044 -2.863236
-3.8206415 9.9795351 -2.3224835
7.4345889 10.384918 -2.4119816
11.623823 8.9590521 -2.5185471
-8.2892466 10.304935 -2.1107478
-6.4322786 9.9052191 -1.7527721
-4.9319634 10.114357 -2.1178226
7.9158406 10.491735 -2.6336713
8.7079334 9.7516584 -2.1301649
10.802766 9.9698505 -2.2936375
12.010877 10.220382 -2.3854148
-8.2475815 -10.056682 -0.39584115
-8.0951366 -9.716239 -1.3167539
-6.7737021 -10.653477 -1.2428508
-5.1435199 -9.8737869 -1.4356607
-4.3469925 -10.093826 -0.82130462
7.8428969 -10.038736 -1.53864
7.1025786 -9.6714039 -1.035998
9.028367 -10.095739 -0.057887435
10.888179 -9.8571062 -0.58264327
11.783915 -10.398778 -1.0419683
11.496567 -8.4930372 -0.57304823
-8.1983051 -7.3091893 -0.39371225
-4.1061006 -8.9850664 -0.48892456
7.6260767 -7.2669625 -1.2847813
7.7564321 -8.4362316 -0.14628822
11.868508 -7.6837335 -0.62699378
-8.7061567 -6.8289642 0.085788436
-4.6022425 -5.55689 -0.88049757
7.692749 -5.7849741 -1.324574
7.8022308 -6.2808394 0.28018606
11.586725 -6.7528429 -0.88446605
-8.6289358 -5.8200169 -0.42403632
-7.0152621 -6.596499 -1.1565536
-5.3005047 -5.8815746 -0.7364918
9.0040321 -5.5379992 -0.41125298
10.994413 -5.5824947 -1.0277295
12.117777 -5.9685578 -0.90239459
-7.9539695 6.5019922 -0.10228625
-8.3761806 6.4691038 -1.1578987
-6.8776407 5.7545047 -0.78929329
-4.9366927 6.492794 -1.2866248
-3.8273416 5.8603201 -0.89469481
7.9081054 6.7161384 -1.6823325
7.7311997 5.7200561 -1.2901238
8.9151678 5.866785 -0.13055402
10.925906 5.5338297 -0.66857672
11.908931 5.5397325 -0.093548357
12.550732 6.4994812 -0.67690146
-8.1728325 8.0166626 -0.74862498
-4.0640016 7.9835658 -0.79509181
8.0480442 8.4386597 -1.5221846
8.1655054 7.0370965 0.38866991
11.916098 7.6091366 -0.68170804
-8.0242443 9.7541113 -0.3889235
-4.4018002 9.4823055 -0.650213
7.6745615 9.9794636 -1.003105
7.681551 10.144154 -0.49149406
11.907565 8.6434641 -0.93297124
-8.1458359 9.803525 -0.708471
-6.6456552 10.109459 -0.48277459
-5.0026684 9.7238674 -0.045780182
8.8048668 10.060674 -1.1362593
11.140728 9.9541187 -0.52746016
11.4898 10.249396 -0.55416501
-7.7729931 -10.026278 1.3763447
-8.2315321 -10.153569 0.08119446
-6.3128381 -9.6983337 0.62423676
-4.9874849 -9.9692745 0.20255587
-4.3391829 -9.9113646 0.74023253
8.6836357 -9.9154558 1.0893372
7.5927963 -10.122759 0.28656465
11.344105 -9.8677826 0.94655454
11.6907 -9.8866453 0.07799612
11.495527 -8.6524572 0.22379446
-8.5707054 -7.6187587 0.38444415
-4.4564905 -8.388711 1.0688442
7.5235591 -7.3671007 0.74243933
11.892415 -7.83147 0.8828671
-8.1534643 -6.6455207 1.5513921
-4.5425205 -6.4558558 0.76948488
7.7501326 -5.7356539 0.59877813
12.504866 -6.5185542 0.75554347
-7.8974495 -5.9188881 0.92558205
-6.6568704 -6.2355509 1.0297843
-5.0445585 -6.3533812 0.82886654
8.8716555 -6.3289666 1.0826771
11.075116 -6.1462889 0.75695366
11.850945 -6.6073813 -0.1884231
-8.1571827 5.5908298 1.3793961
-8.2744198 6.6037679 0.58332515
-6.5330043 6.4326892 0.76023602
-4.4279613 5.8715277 -0.031877518
-3.9028456 5.8141074 0.85995954
8.7493668 5.0937243 0.90704679
7.2498426 5.9477115 0.54286951
11.098859 5.9848943 0.66523117
12.095401 5.5447683 0.12096922
11.814729 6.720849 0.46030971
-8.088625 7.5604939 0.61034763
-4.0055208 8.715786 0.35629541
7.8975568 8.7079277 0.26393428
12.326279 7.838912 0.63610971
-8.3021603 10.217816 1.0146551
-4.4203568 9.9633465 0.28985846
7.7130532 10.111725 1.1947895
11.907602 8.9311399 0.83814049
-8.0352669 9.7505083 0.81108177
-6.5780282 10.116549 0.37838677
-5.7088966 10.485213 0.66734815
8.6070709 9.8017139 1.4040039
10.512608 9.9882584 0.59612423
11.870494 9.5609093 0.71197033
-8.1784821 -10.340613 2.8128331
-8.3929052 -10.832773 1.4313394
-6.7796922 -9.916666 2.0007472
-4.4020524 -10.328194 1.7665876
-3.7549496 -10.390582 1.9841501
7.5137038 -10.037931 1.3744919
7.6220784 -9.4790955 2.3080692
7.9659057 -9.9887009 2.2851756
9.2629156 -10.102426 2.295367
10.787682 -10.135335 1.9817765
11.915118 -10.309275 1.574603
12.097093 -8.6632452 1.6104057
-8.0405436 -8.053215 2.0205898
-3.623034 -8.0515471 2.0103216
7.6190457 -8.4652929 1.3224505
6.8544021 -7.8983502 2.4048328
12.136375 -7.4907908 1.5257843
-8.5779848 -6.3341503 2.777566
-4.0687213 -5.2716613 1.4943339
7.9642854 -6.1888423 1.2863007
7.2206478 -6.122982 2.1648982
11.824406 -6.2819304 1.7522593
-8.6162987 -5.2045746 1.7929578
-7.5738306 -5.6425552 1.9295911
-4.3653412 -5.9071927 2.1791525
7.924264 -5.799099 1.3954899
9.814497 -5.546833 2.7447588
12.021555 -6.0091834 1.6221899
11.286202 -5.9948683 1.5973341
-8.4341621 5.9320364 2.3105271
-7.7885056 6.4049149 1.1500616
-6.9243674 5.7689104 1.8607253
-4.6825533 5.687346 1.7881838
-4.0631728 5.5426984 1.8573642
8.2866287 5.4443502 1.8688936
7.5118079 5.8629856 1.9645454
7.6854582 6.5925508 2.2222335
9.352356 5.3408451 2.178565
11.893409 5.4944172 2.2242446
11.521739 5.7672257 0.7875976
11.993567 6.582407 1.8262594
-8.2575264 8.2658758 2.2227755
-3.6082721 8.6218109 1.6658185
7.6011953 7.410171 1.4355586
8.2099323 8.0912962 2.0378363
12.417346 7.4805155 1.8928773
-8.0851231 10.313954 2.7519276
-3.4557984 9.7678776 2.0503964
7.2208214 10.050937 1.4828511
7.1160111 9.9096813 2.8190608
11.675078 8.5846539 2.1670101
-8.1049833 9.9351873 1.9366287
-6.7514529 9.7646027 1.7313238
-4.5057321 10.196095 2.768193
8.2076721 10.107828 1.792053
9.4892426 10.34525 2.2753417
10.488749 9.8765821 2.2744467
11.887805 10.004417 1.7952391
-8.0467815 -10.099298 3.5850561
-8.2749443 -9.9856796 2.5190861
-6.8614407 -10.006348 3.3471947
-5.0105076 -9.8922071 3.5338447
-3.0719016 -9.4086876 3.0389011
-2.6637325 -10.532484 2.8376439
-2.8754599 -8.8342657 3.5073466
6.9994626 -10.313364 4.0373282
6.9069881 -9.8988934 3.0422931
9.3207245 -9.9393015 3.5885599
10.374092 -10.021142 3.3168962
12.247532 -10.309016 2.6469347
11.579542 -9.054081 3.3791678
-8.0736761 -7.3417325 3.7412744
-3.6016273 -7.0586486 3.0041182
-2.9625037 -8.0186453 3.6005583
7.1933107 -7.5573673 3.180728
12.029921 -7.4943337 3.3060629
-8.3250885 -5.8088689 4.4235697
-3.5724552 -6.1491966 2.1019328
-3.1263525 -6.9396415 3.1612785
7.1146417 -5.6882839 3.3960259
11.893109 -6.4237709 4.2978806
-8.2113237 -5.4078617 3.0827167
-7.3230238 -4.971436 3.136806
-5.0604157 -5.3943725 3.1069028
-3.4072108 -5.4556112 2.8094525
7.0514779 -5.6230173 2.5992274
9.2103109 -5.0212245 2.7453341
11.696768 -5.0623026 2.7087376
11.722141 -5.6714158 3.0966597
-7.9277902 5.0992451 3.2596717
-8.1877356 5.8813963 3.5903037
-8.331048 5.3234925 2.9175742
-5.7528238 5.1739674 2.69735
-3.7483315 7.2673721 2.6573522
-3.3452468 5.4126382 3.1552978
-3.2647543 5.9303083 3.4656253
7.297936 5.118504 2.9616475
7.3328991 6.659276 2.7853012
9.0477686 5.0487247 3.0104616
10.710004 5.5190172 2.7097788
11.558786 5.3755894 3.0538466
11.602763 6.1891012 3.780864
-8.3672085 7.8362632 3.6833074
-3.304636 9.1229086 2.8342807
-3.3807926 7.1071043 3.5944817
6.724915 8.8073645 3.1555283
11.743779 8.0695839 3.8041718
-7.9364595 9.9899082 3.8043776
-3.3370337 10.324484 2.685729
-2.3432493 8.976325 3.5644817
6.4870968 9.9184351 3.0988519
11.859658 8.776021 3.4995985
-8.1683636 9.6814795 3.5775473
-6.6599183 10.084287 3.2866869
-4.4152589 9.9415197 3.4297729
-2.928287 10.252017 4.0695181
8.1620417 10.028613 3.2828355
9.0812092 10.615325 3.6119344
10.434785 10.241683 3.6714306
11.857225 10.213784 3.4220622
-8.2188463 -10.393936 5.3864603
-8.0605202 -10.375201 4.2304235
-6.675405 -10.029924 5.3161263
-4.6472297 -10.235795 4.9023209
-3.5725994 -10.021676 4.6743731
-1.9199337 -8.7414131 4.4051347
-2.3906069 -10.235723 4.1837239
-1.2148306 -10.088595 5.1657004
6.2740631 -10.326013 4.0969119
6.3411069 -9.9667778 5.2108498
5.7782245 -9.6798239 4.3648963
7.9246678 -10.339337 5.0211716
8.8442459 -9.8823423 5.2052131
10.917902 -10.153683 4.5349965
12.237938 -9.982152 3.9258206
11.95045 -8.6148415 4.5829558
-8.6705437 -7.7679973 4.8776002
-2.1895707 -7.3779793 4.9823484
-1.1655221 -8.2881527 4.6351862
6.1809449 -7.9666319 3.960938
5.3888144 -7.6146231 4.6904531
12.433024 -7.2244711 4.7913027
-8.4184885 -6.5620761 5.097436
-2.9944444 -6.4411926 4.0538039
-1.7418246 -6.5724053 5.2596893
6.6675224 -6.1759281 3.7831006
6.1941285 -5.5032854 4.7393646
11.852677 -6.7296629 5.4850564
-8.286972 -4.1976957 3.6096861
-8.4342861 -4.650423 5.5132141
-8.0684109 -4.4145503 3.7279062
-5.7543402 -4.6753716 3.9346986
-2.8102305 -4.5710115 3.4808114
-2.4980342 -3.9969029 4.5081162
-1.4505181 -4.827383 4.7372627
6.1777444 -4.2397175 4.0106244
6.0967827 -4.0016217 4.5480933
6.2657714 -4.6348805 3.7305138
8.4845066 -4.4445791 3.8111196
10.852758 -4.6893024 4.041111
11.812887 -4.5296483 4.1333065
11.71573 -5.5407844 4.9077654
-8.2475452 -3.7844274 4.82585
-6.7915735 -3.9841797 4.3929496
-4.3149905 -3.7696476 4.9016743
-2.2135439 -4.4337473 4.7659869
-1.9327865 -4.0293899 4.570055
5.6725035 -3.7265949 4.7181087
8.171443 -3.8272214 4.2784958
9.3907681 -3.7473238 4.4800844
12.392253 -4.1439648 4.4754825
11.731594 -4.2445836 4.8549781
-8.5703526 4.8330507 3.5509405
-8.4476137 3.637367 4.5314875
-8.23423 4.7299271 4.401484
-6.9769216 4.449893 4.1820426
-8.2160521 3.3579998 4.4571519
-4.65733 5.152236 3.7659276
-5.4358253 3.777658 4.5332961
-2.7484658 4.7842355 3.5396602
-3.7496252 3.7685735 4.7552357
-2.7309656 4.7144423 4.5873318
-1.9824851 4.5190949 4.3114076
-1.7319474 4.5289927 4.9338017
6.6472592 4.8506808 3.9430029
5.6921282 4.1537995 4.0692811
5.9652348 5.2565117 4.2713733
7.5485702 4.8345966 3.736423
6.71065 3.8637953 4.664351
9.5471897 5.0858531 3.8595014
8.5516491 3.9401424 4.2932143
11.440986 4.8790922 3.9435973
10.345345 4.035604 4.7713437
11.59575 5.3969002 4.2916083
11.97023 4.052012 4.8855596
11.987305 4.509932 5.1476369
-8.1370068 6.276885 4.588398
-2.1244507 6.4581141 4.4007621
-1.9102576 5.306303 5.0298047
6.4171424 5.2242508 4.2607465
5.7555394 6.6823168 4.9990311
11.46618 5.9155951 4.7771964
-8.1059771 7.5573864 5.363379
-2.1699727 7.9944096 4.5290766
-1.8237839 7.7126322 4.87813
5.7477508 7.5497222 4.1017103
5.5793805 8.8861761 4.7567301
11.924731 7.191287 4.5601559
-8.2341394 10.317287 4.869905
-2.0526257 9.9244204 4.2767739
-1.3555325 8.623105 4.7170997
5.8460197 10.196289 4.0494895
5.3262043 10.342041 4.6680837
11.733632 9.1408615 4.6347184
-8.2073498 10.169195 4.6975021
-6.6668234 10.150757 4.9608421
-5.0723038 10.322162 4.9824805
-3.5593655 10.04381 4.8207431
-1.7132617 10.01243 4.2834067
6.9307766 9.7862206 5.0810013
7.894321 10.126526 4.9769726
9.1001711 10.163399 4.8557487
11.035911 9.517374 4.5115194
11.611946 10.000465 5.1122732
-8.309576 -10.303406 6.7341852
-8.1819592 -9.773488 6.1595397
-6.5493135 -10.398322 6.3832502
-4.6556849 -10.271295 6.1405549
-3.4469469 -9.8062315 5.971828
-2.3967161 -10.248372 6.0780306
-0.26741919 -9.8870811 5.8616772
-0.47586218 -10.663325 5.1642561
1.409602 -10.031404 6.0980449
0.70263368 -9.9828215 5.7133145
2.4662206 -10.176262 5.9984212
2.0303137 -10.030068 5.6474504
3.5070148 -10.22681 5.6248636
3.6070943 -9.7822895 5.9765673
4.6437216 -10.351727 5.2160439
4.8197231 -10.193116 5.839592
6.3559322 -10.052256 6.7045736
7.7688093 -9.813755 6.1244946
9.047616 -10.091186 6.4205165
10.539441 -9.956789 6.1164289
11.802786 -10.657174 5.8894706
12.22463 -8.9972458 6.0785966
-7.9610891 -8.0707502 5.7380519
-0.5865047 -7.4340796 6.0906053
0.86045074 -7.4398251 5.8410139
2.1017036 -7.8780799 5.7538514
2.9711182 -7.8662024 5.7289109
4.2910471 -8.977438 5.3846755
11.883547 -7.1893525 5.7931299
-8.2958813 -6.7346339 6.4305129
-0.26205474 -5.8319349 5.385283
0.68137872 -6.517612 5.9916787
1.6242803 -6.4025946 5.6847086
3.6262774 -6.5018845 5.5867167
4.9506569 -6.9743047 4.7597647
11.956591 -6.5993814 6.3286228
-8.2849779 -5.2904172 6.2601871
-0.84739965 -4.1663651 5.0427561
0.93443006 -4.8069973 5.8121233
2.6181457 -4.7012157 5.9734941
3.2222633 -4.6597595 6.0972691
4.5959072 -5.0836563 5.3270121
11.464437 -5.0954123 6.3770199
-8.03934 -2.7118123 5.4140415
-8.5130548 -3.3716004 6.5547018
-7.0886588 -2.8058326 4.6862202
-5.3717504 -2.846329 5.2258649
-3.3882604 -3.3308077 5.2502837
-1.4477938 -2.9348228 5.0828776
-0.6394974 -2.8021793 5.6140189
0.58146232 -3.4085565 5.7436032
2.5179403 -3.5592818 5.9130907
3.4866538 -3.9338894 5.6891432
4.5764608 -2.9605768 5.0824919
5.1633916 -3.5524302 4.7687407
7.9077787 -2.9923575 4.6503825
9.7088556 -2.8318617 4.8021426
11.860943 -2.8172524 5.2993155
11.9138 -3.2141552 5.8132372
11.95485 -4.2042561 5.7268276
-8.0180635 -2.2731805 5.8710308
-8.1529026 -1.9459268 6.6562185
-7.403954 -1.7854061 5.6610346
-4.990171 -2.180007 6.0817056
-3.2023592 -1.6955352 5.3916807
-1.9954617 -2.678894 5.4227509
-0.38041458 -1.5957711 5.6140456
0.55814993 -1.9985394 6.048615
1.7501535 -2.1720483 5.8665652
3.5858562 -1.8363444 5.9066391
3.9368515 -2.6472561 5.5002041
5.8870344 -2.345722 5.772038
8.2359028 -2.1742544 5.6396151
9.3811655 -1.9549569 5.7079482
10.680118 -1.3664182 5.475771
11.901486 -1.7469096 5.6968307
12.120764 -2.0235186 6.5511279
-8.2200079 -0.50432956 6.4124608
-8.0366592 -0.36147603 6.7526116
-6.8078275 -1.1464336 6.2283597
-4.7949891 -0.67181087 5.8450146
-3.8466346 -0.59094357 6.0416498
-2.3090682 -0.77404976 6.4033771
-0.93604732 -1.0002414 5.7654095
0.77809155 -0.60245705 6.1216125
1.9189607 -0.29042327 5.8449745
2.1455677 -0.37206653 5.6394062
4.8280473 -0.76380843 5.781219
5.7301288 -0.60030401 6.1317248
7.8678789 -0.77880955 5.8270526
9.0473967 -0.93422139 5.7505159
11.318676 -0.40492302 5.9487877
11.667933 -0.624493 5.9634652
11.768721 -1.2296442 6.9454889
-7.7638173 1.1772362 6.3168497
-8.2357912 0.51559311 6.4087062
-6.5940528 0.55635858 6.1355906
-5.5217595 0.46386039 5.5561786
-3.0659542 1.0024916 5.8247557
-1.6170939 1.1364994 6.3017645
-0.35471085 0.35998747 6.0867605
1.1667382 0.69070518 5.7731824
2.2935355 0.614658 6.1887426
4.0462046 0.58671743 6.1853838
4.8734531 0.46994683 5.7715125
5.9540477 0.27875528 6.15277
7.3788261 0.47019336 6.0150013
9.0628605 0.69861472 6.2279754
10.632486 0.82758534 5.8195271
11.674787 0.55558479 6.3769484
12.031472 0.0083145639 6.2712364
-8.0017185 1.9861486 5.4580016
-8.0778141 2.1620874 6.5702
-7.1327372 1.8798271 5.2582655
-5.101203 1.8195504 5.7939901
-3.1349738 2.4562252 6.2315302
-2.4491441 2.8234973 5.6049948
-0.44963008 1.8933598 5.9207511
0.6070087 0.74659789 5.6086845
2.1164005 2.3406653 5.8289766
3.8826346 1.5430981 5.8118129
4.6456714 2.1085384 5.9841008
6.1234589 1.8539898 5.6963243
7.5490947 1.3240182 5.8555822
8.9835176 1.7917032 5.7155333
11.860071 1.9916295 5.7175264
11.357841 1.2013718 6.2275906
11.683792 0.64001489 6.3761835
-8.0407658 2.9745927 5.2280731
-8.2866831 3.7036746 6.0455012
-7.2622585 2.5343506 5.0708604
-4.8310614 3.0148418 4.9752378
-3.4938035 3.4275429 5.0067267
-1.7199657 3.2182682 5.2977972
-0.41301522 2.2594504 5.9246664
0.59212261 3.6760168 6.2283626
2.2814667 3.4953003 6.1109543
3.2964649 3.4883399 5.4441299
4.2610993 3.0092003 5.5086837
5.103725 3.4463086 5.0658979
7.3385639 2.8304276 5.1883049
9.286684 2.9405262 5.1582117
11.579519 3.3406796 4.8400736
11.392156 3.1034746 5.6699433
12.069157 3.041527 6.7188292
-8.4904518 4.690444 6.5098419
-0.57630128 5.5266223 5.6831908
0.40009606 4.7844453 6.4026852
2.3947933 4.9346399 5.9361506
3.7953339 4.5444055 6.0802212
5.3207784 4.0582962 5.1027246
11.72418 5.2489653 6.1764607
-8.5352726 5.5794926 6.0849857
-0.24821687 7.0546551 5.9852538
0.64676398 6.2928352 5.7919226
1.98627 6.2010641 6.5722847
3.5478625 6.3846335 5.7185369
4.6299019 5.8391256 5.5604506
11.648427 6.2857819 6.2825871
-8.2923441 7.6763248 6.6002269
-0.6923902 9.2043524 6.0666122
0.458749 8.0831156 6.1670423
1.5466552 7.9174995 5.8592706
3.7269216 7.9760137 5.4312081
4.3491178 8.0258551 5.4471555
12.269984 7.3829589 5.9447737
-8.0151577 9.8319845 6.8176661
-1.0225391 9.9768152 5.2814336
0.52367741 10.043958 5.7146096
1.6909623 10.490829 5.9805603
2.5991449 10.016191 6.0182633
4.5299983 9.9103117 5.1248908
11.72607 8.8906097 6.2320747
-8.4062958 10.075233 6.5359592
-6.2598615 10.051386 6.2579374
-4.8607497 10.200956 6.2781343
-3.4982665 9.6947279 6.4571724
-2.3366535 10.179864 6.7486763
-0.18978836 10.364373 5.6698837
1.2567811 10.21104 5.8545241
2.3317521 10.296911 5.9003487
3.9789312 10.096709 6.3684554
4.8965797 10.078929 6.3564253
6.5895362 10.045523 6.1367736
7.903841 10.190614 6.095408
8.9203262 9.8800516 6.1009741
10.729519 9.9096146 6.1213193
11.844477 10.253263 6.3391805
-8.6218452 -10.131141 8.1052322
-8.395752 -9.5207586 7.1151109
-6.5917687 -10.013098 7.7481866
-4.4292817 -9.7048206 7.2195287
-3.9713833 -9.5941067 7.6480484
