ply
format ascii 1.0
element vertex 859
property double x
property double y
property double z
end_header
-0.006632510000000 0.065525100000000 -0.035770100000000
-0.007613160000000 0.065510500000000 -0.036009000000000
-0.008587590000000 0.065489400000000 -0.036256400000000
-0.009587240000000 0.065500000000000 -0.036527400000000
-0.010608700000000 0.065542100000000 -0.036812700000000
-0.011640200000000 0.065577900000000 -0.037090000000000
-0.012616000000000 0.065567400000000 -0.037334100000000
-0.013678900000000 0.065649700000000 -0.037584600000000
-0.014714200000000 0.065709200000000 -0.037795900000000
-0.015718600000000 0.065708000000000 -0.037951300000000
-0.016743700000000 0.065667500000000 -0.038054800000000
-0.017812000000000 0.065561500000000 -0.038041500000000
-0.018890500000000 0.065486600000000 -0.037883300000000
-0.019978200000000 0.065406600000000 -0.037562100000000
-0.021026900000000 0.065365900000000 -0.037143100000000
-0.022132200000000 0.065263000000000 -0.036563900000000
-0.023146400000000 0.065238000000000 -0.035967600000000
-0.024216500000000 0.065155000000000 -0.035209100000000
-0.025288400000000 0.065061700000000 -0.034319500000000
-0.064865100000000 0.101054000000000 -0.017321700000000
-0.065935600000000 0.101056000000000 -0.016885700000000
-0.064909400000000 0.135599000000000 -0.008545380000000
-0.060899000000000 0.034714800000000 0.044585200000000
-0.077157300000000 0.141330000000000 -0.005672330000000
-0.034302700000000 0.169715000000000 -0.015377700000000
-0.065268800000000 0.169617000000000 -0.060007600000000
-0.067025300000000 0.101060000000000 -0.016434900000000
-0.033357200000000 0.063849900000000 -0.014545800000000
-0.034647200000000 0.063840400000000 -0.013543000000000
-0.035640400000000 0.063801600000000 -0.013488500000000
-0.036653300000000 0.063804800000000 -0.013464300000000
-0.037665100000000 0.063808700000000 -0.013445100000000
-0.038674000000000 0.063747600000000 -0.013417300000000
-0.039678200000000 0.063741300000000 -0.013416300000000
-0.040679900000000 0.063733900000000 -0.013421500000000
-0.041681800000000 0.063773200000000 -0.013459900000000
-0.042678500000000 0.063811500000000 -0.013501600000000
-0.043675000000000 0.063745300000000 -0.013488500000000
-0.044667200000000 0.063732800000000 -0.013503500000000
-0.045662800000000 0.063682500000000 -0.013455000000000
-0.046711700000000 0.063573100000000 -0.013586500000000
-0.047769300000000 0.063466000000000 -0.013093000000000
-0.048786900000000 0.063410700000000 -0.012606900000000
-0.049789100000000 0.063350500000000 -0.012105500000000
-0.050836700000000 0.063270100000000 -0.011543600000000
-0.051868100000000 0.063195800000000 -0.010940800000000
-0.052822500000000 0.063177400000000 -0.010345200000000
-0.053846100000000 0.063107200000000 -0.009594840000000
-0.055135100000000 0.062842100000000 -0.008394040000000
-0.056033400000000 0.062737900000000 -0.007372260000000
-0.056977700000000 0.062147900000000 -0.007012500000000
-0.057944900000000 0.062207900000000 -0.006659880000000
-0.058925300000000 0.062260500000000 -0.006310210000000
-0.059887900000000 0.062339600000000 -0.005946290000000
-0.060861500000000 0.062371400000000 -0.005477510000000
-0.061820600000000 0.062431300000000 -0.005000050000000
-0.062768000000000 0.062503300000000 -0.004513970000000
-0.063737700000000 0.062495200000000 -0.003802970000000
-0.064606300000000 0.062771600000000 -0.003612370000000
-0.065564400000000 0.062763700000000 -0.002786820000000
-0.068119200000000 0.101070000000000 -0.015973700000000
-0.020233700000000 0.175607000000000 -0.020782000000000
-0.060045700000000 0.107024000000000 -0.017838000000000
-0.061029000000000 0.106975000000000 -0.017476600000000
-0.037133600000000 0.157468000000000 -0.011809100000000
-0.042141200000000 0.154525000000000 -0.008819540000000
-0.027846400000000 0.035077300000000 0.053322400000000
-0.055920500000000 0.131137000000000 -0.006036080000000
-0.074011300000000 0.112162000000000 -0.007861000000000
-0.072995000000000 0.112193000000000 -0.008485830000000
-0.063611900000000 0.071623600000000 0.039002500000000
-0.061926900000000 0.123859000000000 -0.008890640000000
-0.082236400000000 0.120557000000000 -0.004980640000000
-0.081214400000000 0.120578000000000 -0.005540460000000
-0.069111500000000 0.101039000000000 -0.015560200000000
-0.084140400000000 0.120530000000000 -0.003829520000000
-0.083222200000000 0.120523000000000 -0.004395170000000
-0.085032500000000 0.120553000000000 -0.003241200000000
-0.061848200000000 0.134134000000000 -0.007928590000000
-0.075986600000000 0.116320000000000 -0.006580850000000
-0.084312000000000 0.129542000000000 -0.003676330000000
-0.083243600000000 0.129545000000000 -0.004456660000000
-0.075638500000000 0.066408600000000 0.015812500000000
-0.071206300000000 0.075222100000000 0.037703100000000
-0.024952200000000 0.165752000000000 -0.015977200000000
-0.039497400000000 0.165243000000000 -0.013020900000000
-0.068340400000000 0.072309800000000 0.037272800000000
-0.070151200000000 0.101038000000000 -0.015109600000000
-0.016638600000000 0.166508000000000 -0.016809500000000
-0.062078200000000 0.106980000000000 -0.017030300000000
-0.058909300000000 0.135560000000000 -0.006553880000000
-0.076056500000000 0.126710000000000 -0.008325370000000
-0.058789100000000 0.131181000000000 -0.007347950000000
-0.061046500000000 0.108413000000000 -0.016994100000000
-0.045928400000000 0.108738000000000 -0.019346500000000
-0.044912400000000 0.108662000000000 -0.019394800000000
-0.064197100000000 0.108411000000000 -0.015433900000000
-0.079903000000000 0.114758000000000 -0.003629640000000
-0.071091000000000 0.100974000000000 -0.014706900000000
0.026798500000000 0.066016100000000 -0.023288300000000
0.025900600000000 0.066048500000000 -0.024070600000000
0.024989300000000 0.066082800000000 -0.024841200000000
0.023439200000000 0.066322200000000 -0.026108900000000
0.022308700000000 0.066420000000000 -0.026919100000000
0.021316400000000 0.066463200000000 -0.027544400000000
0.020337700000000 0.066487200000000 -0.028094300000000
0.019373100000000 0.066508200000000 -0.028576400000000
0.018433700000000 0.066505400000000 -0.028995600000000
0.017435200000000 0.066522300000000 -0.029404100000000
0.016383500000000 0.066571600000000 -0.029796800000000
0.015365100000000 0.066606900000000 -0.030141000000000
0.014342000000000 0.066641800000000 -0.030462700000000
0.013384200000000 0.066620900000000 -0.030742900000000
0.012422700000000 0.066596000000000 -0.031015100000000
0.011473300000000 0.066591100000000 -0.031283800000000
0.010446300000000 0.066627300000000 -0.031583400000000
0.009422890000000 0.066666200000000 -0.031885300000000
0.008396250000000 0.066709000000000 -0.032190700000000
0.007373990000000 0.066742400000000 -0.032501400000000
0.006382840000000 0.066759200000000 -0.032793400000000
0.005391770000000 0.066775000000000 -0.033084200000000
0.004398330000000 0.066795300000000 -0.033368500000000
0.003397920000000 0.066817900000000 -0.033644700000000
0.002364620000000 0.066851200000000 -0.033917400000000
0.001332290000000 0.066879900000000 -0.034174500000000
0.000324822000000 0.066898500000000 -0.034410600000000
-0.000657422000000 0.066907600000000 -0.034627600000000
-0.001616850000000 0.066886300000000 -0.034830100000000
-0.002597860000000 0.066877300000000 -0.035037300000000
-0.003609290000000 0.066883100000000 -0.035252600000000
-0.004601960000000 0.066894900000000 -0.035472100000000
-0.005628060000000 0.066910500000000 -0.035710000000000
-0.006629420000000 0.066933900000000 -0.035957400000000
-0.007599770000000 0.066913900000000 -0.036205400000000
-0.008547590000000 0.066874000000000 -0.036457600000000
-0.009563980000000 0.066905100000000 -0.036751300000000
-0.010589500000000 0.066936400000000 -0.037055800000000
-0.011587500000000 0.066945100000000 -0.037339600000000
-0.012608700000000 0.066993400000000 -0.037621100000000
-0.013673800000000 0.067074100000000 -0.037886400000000
-0.014694300000000 0.067095600000000 -0.038099900000000
-0.015717900000000 0.067125100000000 -0.038272100000000
-0.016738600000000 0.067095900000000 -0.038385200000000
-0.017768300000000 0.067070300000000 -0.038431000000000
-0.018841200000000 0.066984000000000 -0.038367400000000
-0.019918900000000 0.066919500000000 -0.038162600000000
-0.021011800000000 0.066851000000000 -0.037781900000000
-0.022086700000000 0.066776700000000 -0.037272100000000
-0.023118400000000 0.066739000000000 -0.036698000000000
-0.024198300000000 0.066644600000000 -0.035961900000000
-0.025232900000000 0.066581700000000 -0.035154000000000
-0.072121100000000 0.100957000000000 -0.014227200000000
-0.055243100000000 0.150208000000000 -0.002516690000000
-0.063883400000000 0.135602000000000 -0.008316400000000
-0.060984000000000 0.138449000000000 -0.006752230000000
-0.078117000000000 0.141308000000000 -0.005035760000000
-0.073090400000000 0.100906000000000 -0.013756900000000
-0.074096500000000 0.100863000000000 -0.013223000000000
-0.021596800000000 0.167848000000000 -0.016548800000000
-0.075132500000000 0.100830000000000 -0.012609500000000
-0.034642600000000 0.065381300000000 -0.014340600000000
-0.035666700000000 0.065230200000000 -0.014230400000000
-0.036666200000000 0.065241600000000 -0.014199800000000
-0.037675500000000 0.065244500000000 -0.014172100000000
-0.038682400000000 0.065186100000000 -0.014136200000000
-0.039687000000000 0.065185400000000 -0.014124000000000
-0.040686800000000 0.065238900000000 -0.014144800000000
-0.041688400000000 0.065343300000000 -0.014204100000000
-0.042680500000000 0.065330400000000 -0.014206800000000
-0.043675200000000 0.065322900000000 -0.014212300000000
-0.044675400000000 0.065272000000000 -0.014157500000000
-0.045693800000000 0.065074700000000 -0.013997600000000
-0.046760200000000 0.064987800000000 -0.014077600000000
-0.047742000000000 0.064968700000000 -0.013646200000000
-0.048708600000000 0.064953600000000 -0.013207200000000
-0.049846400000000 0.064774100000000 -0.012590600000000
-0.050940800000000 0.064646500000000 -0.011989700000000
-0.051982200000000 0.064572900000000 -0.011391600000000
-0.052999100000000 0.064515300000000 -0.010751100000000
-0.053934300000000 0.064519100000000 -0.010121000000000
-0.054787300000000 0.063795800000000 -0.009730310000000
-0.056025000000000 0.063553700000000 -0.009060500000000
-0.056986800000000 0.063635200000000 -0.008808300000000
-0.057965000000000 0.063724300000000 -0.008563680000000
-0.058951300000000 0.063768700000000 -0.008229890000000
-0.059937400000000 0.063815300000000 -0.007892820000000
-0.060941200000000 0.063759600000000 -0.007375170000000
-0.061920900000000 0.063792000000000 -0.006928660000000
-0.062872800000000 0.063898200000000 -0.006548570000000
-0.063892700000000 0.063907000000000 -0.005924530000000
-0.064836100000000 0.063900200000000 -0.005269890000000
-0.065782800000000 0.063956600000000 -0.004618890000000
-0.066711600000000 0.063987800000000 -0.003874960000000
-0.076261700000000 0.100825000000000 -0.011848100000000
-0.022028900000000 0.175512000000000 -0.019233300000000
-0.023918500000000 0.175390000000000 -0.017942400000000
-0.023868600000000 0.165985000000000 -0.015893900000000
-0.025855500000000 0.171133000000000 -0.018505200000000
-0.017668200000000 0.178589000000000 -0.023674700000000
-0.041111500000000 0.154571000000000 -0.009122590000000
-0.076096800000000 0.067173800000000 0.015081100000000
-0.057926700000000 0.131159000000000 -0.006849400000000
-0.044228700000000 0.155945000000000 -0.008976570000000
-0.011497300000000 0.178137000000000 -0.026152600000000
-0.060938900000000 0.123849000000000 -0.008731560000000
-0.058924500000000 0.123851000000000 -0.008347580000000
-0.062612700000000 0.060445600000000 0.022042600000000
-0.059933500000000 0.123851000000000 -0.008545640000000
-0.043213300000000 0.155956000000000 -0.009336610000000
-0.061078100000000 0.109863000000000 -0.016410600000000
-0.061049900000000 0.067436800000000 0.035850500000000
-0.054140000000000 0.070750200000000 0.039887600000000
-0.043270000000000 0.157385000000000 -0.010104500000000
-0.044164300000000 0.154522000000000 -0.008191680000000
-0.026724300000000 0.035038900000000 0.053609600000000
-0.060103000000000 0.060617100000000 0.024153900000000
-0.054263200000000 0.153153000000000 -0.002988410000000
-0.026009400000000 0.165588000000000 -0.016099800000000
-0.034266700000000 0.164907000000000 -0.015827800000000
-0.073787100000000 0.074971500000000 0.035608400000000
-0.057226900000000 0.063961400000000 0.032570600000000
-0.080933200000000 0.114702000000000 -0.003004440000000
-0.063972700000000 0.112497000000000 -0.013452800000000
-0.043545200000000 0.162220000000000 -0.010649300000000
-0.056005100000000 0.144251000000000 -0.001640390000000
-0.076125900000000 0.139877000000000 -0.006354290000000
-0.049913300000000 0.108552000000000 -0.019328900000000
-0.046919700000000 0.108715000000000 -0.019341200000000
-0.051931100000000 0.108533000000000 -0.019205500000000
-0.028890700000000 0.098757800000000 -0.023821700000000
-0.074192100000000 0.114893000000000 -0.007367670000000
-0.064034000000000 0.162014000000000 -0.059178600000000
0.026650500000000 0.067497800000000 -0.023644000000000
0.025751000000000 0.067523500000000 -0.024417100000000
0.024711400000000 0.067600400000000 -0.025283100000000
0.023403800000000 0.067760000000000 -0.026317800000000
0.022323700000000 0.067838100000000 -0.027066600000000
0.021265100000000 0.067903600000000 -0.027724000000000
0.020282400000000 0.067939300000000 -0.028264700000000
0.019322900000000 0.067958600000000 -0.028742500000000
0.018389100000000 0.067955800000000 -0.029168100000000
0.017399300000000 0.067978000000000 -0.029582400000000
0.016352700000000 0.068019700000000 -0.029983600000000
0.015299700000000 0.068074800000000 -0.030362100000000
0.014288900000000 0.068109500000000 -0.030702100000000
0.013327700000000 0.068132700000000 -0.031010300000000
0.012415200000000 0.068052800000000 -0.031279600000000
0.011536500000000 0.067966900000000 -0.031531300000000
0.010553500000000 0.067970700000000 -0.031822900000000
0.009530950000000 0.068005400000000 -0.032137500000000
0.008506100000000 0.068044400000000 -0.032448000000000
0.007446170000000 0.068110200000000 -0.032771300000000
0.006419280000000 0.068149400000000 -0.033073000000000
0.005455280000000 0.068135400000000 -0.033338400000000
0.004451940000000 0.068148500000000 -0.033608900000000
0.003473590000000 0.068143300000000 -0.033857000000000
0.002463410000000 0.068165000000000 -0.034104700000000
0.001453500000000 0.068191500000000 -0.034340100000000
0.000439821000000 0.068214900000000 -0.034565000000000
-0.000573110000000 0.068233900000000 -0.034781200000000
-0.001585380000000 0.068256400000000 -0.034993500000000
-0.002619340000000 0.068300200000000 -0.035216300000000
-0.003653270000000 0.068345200000000 -0.035445500000000
-0.004712450000000 0.068422300000000 -0.035696700000000
-0.005717680000000 0.068439400000000 -0.035941700000000
-0.006696360000000 0.068426800000000 -0.036191500000000
-0.007665970000000 0.068411100000000 -0.036453400000000
-0.008614300000000 0.068355600000000 -0.036716400000000
-0.009565060000000 0.068333100000000 -0.036996100000000
-0.010594100000000 0.068371500000000 -0.037311400000000
-0.011639700000000 0.068440900000000 -0.037634500000000
-0.012684400000000 0.068513200000000 -0.037930900000000
-0.013670100000000 0.068498400000000 -0.038169500000000
-0.014693000000000 0.068523900000000 -0.038386900000000
-0.015711500000000 0.068524100000000 -0.038556000000000
-0.016731600000000 0.068524600000000 -0.038677800000000
-0.017764900000000 0.068468100000000 -0.038733700000000
-0.018800400000000 0.068455400000000 -0.038731800000000
-0.019876100000000 0.068375400000000 -0.038623600000000
-0.020932000000000 0.068361800000000 -0.038397200000000
-0.022056300000000 0.068262700000000 -0.037934900000000
-0.023119500000000 0.068208400000000 -0.037365200000000
-0.024171600000000 0.068143400000000 -0.036702200000000
-0.025223000000000 0.068069000000000 -0.035923900000000
-0.026279900000000 0.067982200000000 -0.035009100000000
-0.045242400000000 0.155933000000000 -0.008611290000000
-0.062866900000000 0.135602000000000 -0.008038900000000
-0.065917200000000 0.138541000000000 -0.008360580000000
-0.015622300000000 0.037739100000000 0.052373000000000
-0.035280000000000 0.169706000000000 -0.014826800000000
-0.054956200000000 0.109922000000000 -0.018314000000000
-0.031514400000000 0.036070300000000 0.051590700000000
-0.023149600000000 0.034977700000000 0.052383400000000
-0.034267600000000 0.066762700000000 -0.015167500000000
-0.035649600000000 0.066770700000000 -0.015031300000000
-0.036690200000000 0.066609000000000 -0.014911400000000
-0.037690700000000 0.066620600000000 -0.014878800000000
-0.038697800000000 0.066562500000000 -0.014830500000000
-0.039695600000000 0.066623300000000 -0.014843600000000
-0.040693500000000 0.066734500000000 -0.014886700000000
-0.041695000000000 0.066844100000000 -0.014931600000000
-0.042684500000000 0.066840400000000 -0.014920000000000
-0.043673100000000 0.066846500000000 -0.014893200000000
-0.044680000000000 0.066809600000000 -0.014815700000000
-0.045671400000000 0.066740200000000 -0.014667600000000
-0.046695000000000 0.066533400000000 -0.014673900000000
-0.047717900000000 0.066469500000000 -0.014212600000000
-0.048730300000000 0.066408800000000 -0.013743300000000
-0.049733200000000 0.066357400000000 -0.013247200000000
-0.050773800000000 0.066280700000000 -0.012694700000000
-0.051758500000000 0.065839800000000 -0.012432500000000
-0.052851700000000 0.065592900000000 -0.011991600000000
-0.053905600000000 0.065387600000000 -0.011599000000000
-0.054943200000000 0.065257900000000 -0.011263600000000
-0.055931000000000 0.065286800000000 -0.011054700000000
-0.056945900000000 0.065267700000000 -0.010761400000000
-0.057987900000000 0.065135100000000 -0.010279400000000
-0.059005600000000 0.065091200000000 -0.009866050000000
-0.059981500000000 0.065195600000000 -0.009616340000000
-0.060990400000000 0.065190000000000 -0.009188890000000
-0.061970500000000 0.065266100000000 -0.008832300000000
-0.062975900000000 0.065247500000000 -0.008284950000000
-0.063970400000000 0.065260400000000 -0.007718970000000
-0.064915300000000 0.065360900000000 -0.007237300000000
-0.065972000000000 0.065182500000000 -0.006231490000000
-0.066994800000000 0.065089900000000 -0.005276430000000
-0.067957700000000 0.065083500000000 -0.004395000000000
-0.083226400000000 0.117504000000000 -0.003248870000000
-0.025979400000000 0.175302000000000 -0.016637600000000
0.012163300000000 0.110172000000000 -0.018907900000000
-0.031234700000000 0.171186000000000 -0.016552900000000
-0.066341800000000 0.175318000000000 -0.059941000000000
-0.037884700000000 0.109906000000000 -0.019114700000000
-0.073190000000000 0.069950100000000 0.031159200000000
-0.039103300000000 0.154491000000000 -0.009477750000000
-0.052007800000000 0.145652000000000 -0.001299650000000
-0.030928700000000 0.154581000000000 -0.008773160000000
-0.013117200000000 0.178266000000000 -0.024174100000000
-0.070304400000000 0.075034300000000 0.038125100000000
-0.056881400000000 0.142850000000000 -0.002689570000000
-0.031252200000000 0.165067000000000 -0.016236700000000
-0.057956100000000 0.132596000000000 -0.006676410000000
-0.081540200000000 0.110929000000000 0.044990000000000
-0.082408300000000 0.131089000000000 -0.004565120000000
-0.081490900000000 0.131128000000000 -0.005156490000000
-0.012514800000000 0.177191000000000 -0.029594500000000
-0.024654300000000 0.169077000000000 -0.016807400000000
-0.058721900000000 0.129735000000000 -0.007507040000000
-0.011887000000000 0.173745000000000 -0.024211700000000
-0.066002600000000 0.156093000000000 -0.053878100000000
-0.055204100000000 0.153142000000000 -0.002357730000000
-0.017632300000000 0.166539000000000 -0.016592900000000
-0.035528000000000 0.165274000000000 -0.015432200000000
-0.037486500000000 0.169783000000000 -0.013444300000000
-0.038479500000000 0.169774000000000 -0.012785100000000
-0.057900000000000 0.129715000000000 -0.007044010000000
-0.066950400000000 0.129722000000000 -0.009294380000000
-0.063062000000000 0.106933000000000 -0.016591500000000
-0.065978000000000 0.112429000000000 -0.012313700000000
-0.060858200000000 0.135593000000000 -0.007351700000000
-0.072036000000000 0.116445000000000 -0.008332070000000
-0.048909100000000 0.108569000000000 -0.019358500000000
-0.047916200000000 0.108666000000000 -0.019344400000000
-0.053948000000000 0.111362000000000 -0.017920000000000
-0.063364400000000 0.171011000000000 -0.062253400000000
-0.073003800000000 0.126750000000000 -0.009086180000000
0.027474500000000 0.068924900000000 -0.023175400000000
0.026645600000000 0.068926600000000 -0.023890300000000
0.025610100000000 0.069006800000000 -0.024763300000000
0.024559900000000 0.069080000000000 -0.025611900000000
0.023481400000000 0.069161900000000 -0.026413200000000
0.022373000000000 0.069244900000000 -0.027154400000000
0.021296200000000 0.069313000000000 -0.027796700000000
0.020257100000000 0.069364200000000 -0.028357600000000
0.019301200000000 0.069392300000000 -0.028832100000000
0.018327900000000 0.069415000000000 -0.029279900000000
0.017341000000000 0.069437200000000 -0.029702400000000
0.016301900000000 0.069476600000000 -0.030120700000000
0.015216400000000 0.069535700000000 -0.030530800000000
0.014214200000000 0.069571800000000 -0.030893600000000
0.013250700000000 0.069591700000000 -0.031229000000000
0.012280200000000 0.069593400000000 -0.031558600000000
0.011375200000000 0.069558600000000 -0.031852900000000
0.010451100000000 0.069491800000000 -0.032142000000000
0.009436230000000 0.069532200000000 -0.032469800000000
0.008447320000000 0.069529500000000 -0.032774400000000
0.007386340000000 0.069595100000000 -0.033102000000000
0.006327640000000 0.069667700000000 -0.033418700000000
0.005300670000000 0.069716600000000 -0.033703400000000
0.004356180000000 0.069660500000000 -0.033931100000000
0.003381280000000 0.069648600000000 -0.034160400000000
0.002423560000000 0.069609100000000 -0.034368900000000
0.001409830000000 0.069635200000000 -0.034587800000000
0.000398912000000 0.069661500000000 -0.034802800000000
-0.000587853000000 0.069655400000000 -0.034998500000000
-0.001622070000000 0.069710100000000 -0.035218000000000
-0.002696780000000 0.069783600000000 -0.035457200000000
-0.003719630000000 0.069842700000000 -0.035691400000000
-0.004725500000000 0.069865200000000 -0.035930100000000
-0.005728200000000 0.069878800000000 -0.036182400000000
-0.006676180000000 0.069830600000000 -0.036424500000000
-0.007669620000000 0.069841600000000 -0.036706100000000
-0.008634040000000 0.069820100000000 -0.036984100000000
-0.009590670000000 0.069789500000000 -0.037263200000000
-0.010642500000000 0.069864400000000 -0.037596600000000
-0.011745500000000 0.069998300000000 -0.037935300000000
-0.012720100000000 0.069976800000000 -0.038198200000000
-0.013676300000000 0.069937900000000 -0.038425500000000
-0.014701800000000 0.069958400000000 -0.038645300000000
-0.015722600000000 0.069958800000000 -0.038811800000000
-0.016729500000000 0.069901400000000 -0.038921100000000
-0.017755400000000 0.069880800000000 -0.038990900000000
-0.018815500000000 0.069838000000000 -0.039003700000000
-0.019836600000000 0.069859700000000 -0.038966700000000
-0.020896300000000 0.069829400000000 -0.038835600000000
-0.021984100000000 0.069782300000000 -0.038537100000000
-0.023092600000000 0.069701400000000 -0.038009500000000
-0.024221600000000 0.069582000000000 -0.037313600000000
-0.025189400000000 0.069572600000000 -0.036670000000000
-0.026269700000000 0.069471200000000 -0.035790600000000
-0.082268500000000 0.119020000000000 -0.004470680000000
-0.061867800000000 0.135592000000000 -0.007721390000000
-0.066948700000000 0.138536000000000 -0.008498340000000
-0.080189400000000 0.108538000000000 0.034407200000000
-0.036416500000000 0.169752000000000 -0.014128400000000
-0.065206100000000 0.161884000000000 -0.059264900000000
-0.070616100000000 0.112570000000000 0.049662800000000
-0.068981500000000 0.117980000000000 -0.009065970000000
-0.034293300000000 0.068353100000000 -0.016601800000000
-0.035656900000000 0.068251700000000 -0.015785500000000
-0.036695200000000 0.068099200000000 -0.015668700000000
-0.037705900000000 0.067994100000000 -0.015577200000000
-0.038707300000000 0.068057600000000 -0.015578800000000
-0.039698400000000 0.068060500000000 -0.015555900000000
-0.040706900000000 0.068230100000000 -0.015620400000000
-0.041698600000000 0.068284600000000 -0.015628700000000
-0.042690100000000 0.068345700000000 -0.015624600000000
-0.043685800000000 0.068308900000000 -0.015547300000000
-0.044678200000000 0.068287300000000 -0.015440800000000
-0.045680400000000 0.068060400000000 -0.015636700000000
-0.046707100000000 0.067983000000000 -0.015208200000000
-0.047735200000000 0.067916800000000 -0.014757600000000
-0.048755100000000 0.067855300000000 -0.014291900000000
-0.049769700000000 0.067801200000000 -0.013807200000000
-0.050745000000000 0.067475000000000 -0.013800600000000
-0.051753400000000 0.067391400000000 -0.013590500000000
-0.052740300000000 0.067429800000000 -0.013510000000000
-0.053747100000000 0.067461700000000 -0.013449200000000
-0.054764900000000 0.067422600000000 -0.013338900000000
-0.055817500000000 0.067174900000000 -0.013003000000000
-0.056849400000000 0.067101900000000 -0.012764200000000
-0.057873600000000 0.067053400000000 -0.012507600000000
-0.058866100000000 0.067166100000000 -0.012392600000000
-0.059930100000000 0.066898700000000 -0.011741500000000
-0.060856200000000 0.067195700000000 -0.011759800000000
-0.061862500000000 0.067204700000000 -0.011332400000000
-0.062861600000000 0.067173000000000 -0.010792000000000
-0.063963200000000 0.066876500000000 -0.009782670000000
-0.064992000000000 0.066789400000000 -0.009015880000000
-0.066074000000000 0.066630500000000 -0.008035160000000
-0.067114300000000 0.066482600000000 -0.007027630000000
-0.068043100000000 0.066522500000000 -0.006275540000000
0.002120150000000 0.111644000000000 -0.020361300000000
-0.039890000000000 0.108532000000000 -0.019615800000000
-0.063933200000000 0.126791000000000 -0.008993240000000
-0.037529400000000 0.165255000000000 -0.014258000000000
-0.067265600000000 0.175340000000000 -0.058895800000000
-0.057997100000000 0.109890000000000 -0.017587700000000
-0.069128700000000 0.108183000000000 -0.012702900000000
-0.064936300000000 0.138527000000000 -0.008152170000000
-0.066465500000000 0.072005900000000 0.037996700000000
-0.069423700000000 0.076047800000000 0.039270900000000
-0.053003000000000 0.145698000000000 -0.001220600000000
-0.069965000000000 0.125303000000000 -0.009388730000000
-0.075133300000000 0.139894000000000 -0.006801640000000
-0.032176300000000 0.172652000000000 -0.015668900000000
-0.033227700000000 0.172675000000000 -0.015104800000000
-0.064170100000000 0.106969000000000 -0.016027600000000
-0.065263100000000 0.106992000000000 -0.015438800000000
-0.066259800000000 0.106955000000000 -0.014906100000000
-0.067157100000000 0.106852000000000 -0.014446300000000
-0.068150500000000 0.106817000000000 -0.013906900000000
-0.069143600000000 0.106775000000000 -0.013372300000000
-0.070138200000000 0.106734000000000 -0.012835600000000
-0.071132800000000 0.106692000000000 -0.012297300000000
-0.058944200000000 0.132613000000000 -0.007074470000000
-0.067158900000000 0.108275000000000 -0.013799700000000
-0.034462300000000 0.166763000000000 -0.015820600000000
-0.018664100000000 0.166498000000000 -0.016342700000000
-0.027063500000000 0.165442000000000 -0.016206800000000
-0.077920500000000 0.068770500000000 0.015158700000000
-0.066221700000000 0.108353000000000 -0.014302500000000
-0.054002200000000 0.144273000000000 -0.000927991000000
-0.077238800000000 0.136964000000000 -0.006189420000000
-0.072069600000000 0.106613000000000 -0.011797000000000
-0.084402800000000 0.131034000000000 -0.003063780000000
-0.054974900000000 0.112807000000000 -0.017099000000000
-0.068033100000000 0.110981000000000 -0.011899500000000
-0.050914200000000 0.108530000000000 -0.019286300000000
-0.057009100000000 0.112783000000000 -0.016594800000000
-0.065928200000000 0.126799000000000 -0.009285760000000
-0.070118600000000 0.108139000000000 -0.012158400000000
-0.046326300000000 0.157316000000000 -0.008950200000000
0.027401100000000 0.070377100000000 -0.023478200000000
0.026555500000000 0.070386500000000 -0.024186300000000
0.025567800000000 0.070445800000000 -0.024983800000000
0.024499700000000 0.070527200000000 -0.025802300000000
0.023396600000000 0.070611400000000 -0.026564300000000
0.022443100000000 0.070655900000000 -0.027164600000000
0.021351400000000 0.070713800000000 -0.027790400000000
0.020305500000000 0.070762500000000 -0.028341900000000
0.019296700000000 0.070801100000000 -0.028837100000000
0.018329000000000 0.070834800000000 -0.029290100000000
0.017349000000000 0.070862000000000 -0.029718500000000
0.016361900000000 0.070887400000000 -0.030136500000000
0.015274000000000 0.070926900000000 -0.030573500000000
0.014233200000000 0.070966600000000 -0.030980500000000
0.013197800000000 0.070999300000000 -0.031378000000000
0.012274800000000 0.071011700000000 -0.031724600000000
0.011273700000000 0.071035700000000 -0.032092700000000
0.010304500000000 0.071043700000000 -0.032438100000000
0.009288380000000 0.071076200000000 -0.032792300000000
0.008219550000000 0.071155800000000 -0.033154700000000
0.007255200000000 0.071143500000000 -0.033447900000000
0.006266530000000 0.071148800000000 -0.033734300000000
0.005240060000000 0.071199500000000 -0.034018000000000
0.004269480000000 0.071182500000000 -0.034255400000000
0.003292610000000 0.071172900000000 -0.034478300000000
0.002331660000000 0.071126100000000 -0.034677300000000
0.001300220000000 0.071188400000000 -0.034900500000000
0.000289498000000 0.071215400000000 -0.035107200000000
-0.000695852000000 0.071207600000000 -0.035302000000000
-0.001659900000000 0.071160700000000 -0.035488600000000
-0.002666590000000 0.071194300000000 -0.035706800000000
-0.003699810000000 0.071242600000000 -0.035945300000000
-0.004703870000000 0.071262600000000 -0.036187200000000
-0.005675710000000 0.071246700000000 -0.036430300000000
-0.006645860000000 0.071226700000000 -0.036686200000000
-0.007669390000000 0.071266600000000 -0.036982500000000
-0.008713350000000 0.071328700000000 -0.037293400000000
-0.009649610000000 0.071222900000000 -0.037545600000000
-0.010675800000000 0.071314200000000 -0.037862000000000
-0.011749000000000 0.071428900000000 -0.038176300000000
-0.012722600000000 0.071417600000000 -0.038423700000000
-0.013695700000000 0.071384100000000 -0.038649700000000
-0.014719300000000 0.071407600000000 -0.038862400000000
-0.015730600000000 0.071408200000000 -0.039026300000000
-0.016740000000000 0.071386600000000 -0.039141600000000
-0.017760300000000 0.071368200000000 -0.039213500000000
-0.018795500000000 0.071299400000000 -0.039233800000000
-0.019821000000000 0.071317400000000 -0.039216200000000
-0.020885500000000 0.071279200000000 -0.039132500000000
-0.021948700000000 0.071255400000000 -0.038952900000000
-0.023054100000000 0.071190900000000 -0.038554600000000
-0.024124900000000 0.071127800000000 -0.037976600000000
-0.025225300000000 0.071026300000000 -0.037262400000000
-0.026215700000000 0.070988400000000 -0.036538100000000
-0.027266300000000 0.070893300000000 -0.035632700000000
-0.062005700000000 0.119686000000000 -0.009831100000000
-0.061019600000000 0.119742000000000 -0.010130300000000
-0.067989200000000 0.138530000000000 -0.008551690000000
-0.077205200000000 0.076602200000000 0.033592500000000
-0.077256100000000 0.107182000000000 0.034747100000000
-0.057979600000000 0.111294000000000 -0.017011000000000
-0.069150600000000 0.151716000000000 -0.047404600000000
-0.034489100000000 0.069752300000000 -0.017485800000000
-0.035693600000000 0.069696600000000 -0.016475500000000
-0.036712800000000 0.069540900000000 -0.016359800000000
-0.037717600000000 0.069449000000000 -0.016274700000000
-0.038714600000000 0.069510400000000 -0.016273200000000
-0.039709400000000 0.069570800000000 -0.016272200000000
-0.040718200000000 0.069735800000000 -0.016323600000000
-0.041708100000000 0.069846500000000 -0.016337300000000
-0.042692000000000 0.069916800000000 -0.016310400000000
-0.043694100000000 0.069836700000000 -0.016199200000000
-0.044692100000000 0.069570800000000 -0.016505400000000
-0.045722300000000 0.069474800000000 -0.016114100000000
-0.046758500000000 0.069393900000000 -0.015704800000000
-0.047753800000000 0.069356900000000 -0.015305300000000
-0.048786200000000 0.069294400000000 -0.014853900000000
-0.049724300000000 0.069064000000000 -0.014866100000000
-0.050714900000000 0.069088100000000 -0.014775300000000
-0.051735000000000 0.068987000000000 -0.014655700000000
-0.052733400000000 0.068990800000000 -0.014622500000000
-0.053736500000000 0.068992300000000 -0.014604000000000
-0.054735600000000 0.069059100000000 -0.014637800000000
-0.055734100000000 0.069132600000000 -0.014668400000000
-0.056723700000000 0.069289400000000 -0.014748900000000
-0.057720500000000 0.069248100000000 -0.014638800000000
-0.058723300000000 0.069225700000000 -0.014506300000000
-0.059702600000000 0.069303400000000 -0.014412400000000
-0.060740400000000 0.069155800000000 -0.014014900000000
-0.061777800000000 0.068980800000000 -0.013473000000000
-0.062811500000000 0.068869600000000 -0.012884100000000
-0.063850000000000 0.068742200000000 -0.012162500000000
-0.064867200000000 0.068654800000000 -0.011410400000000
-0.065912300000000 0.068532500000000 -0.010524700000000
-0.066993100000000 0.068360400000000 -0.009481440000000
-0.068060400000000 0.068118100000000 -0.008266160000000
-0.069114400000000 0.067964500000000 -0.007109780000000
-0.070078300000000 0.068020000000000 -0.006238310000000
-0.055945800000000 0.142814000000000 -0.002168290000000
-0.083362700000000 0.131049000000000 -0.003894340000000
-0.059032000000000 0.114163000000000 -0.015052000000000
-0.059937400000000 0.126776000000000 -0.008091540000000
-0.009776700000000 0.177279000000000 -0.029818300000000
-0.020923200000000 0.176987000000000 -0.019827600000000
-0.074025900000000 0.128212000000000 -0.008829570000000
-0.079270200000000 0.071228600000000 0.019885500000000
-0.063452600000000 0.070421500000000 0.038109900000000
-0.053997300000000 0.145769000000000 -0.001166730000000
-0.074381700000000 0.110591000000000 0.046736500000000
-0.071106600000000 0.108094000000000 -0.011619500000000
-0.055861500000000 0.035569400000000 0.046979600000000
-0.073103800000000 0.106596000000000 -0.011198000000000
-0.074126400000000 0.106564000000000 -0.010572900000000
-0.075076800000000 0.106490000000000 -0.009971840000000
-0.015362900000000 0.180096000000000 -0.027154900000000
-0.051319200000000 0.157616000000000 -0.004999980000000
-0.018011600000000 0.172361000000000 -0.019292300000000
-0.040163500000000 0.157496000000000 -0.011146900000000
-0.049817200000000 0.070378900000000 0.039515900000000
-0.055010900000000 0.142778000000000 -0.001642950000000
-0.011890800000000 0.107401000000000 -0.022311800000000
-0.021121800000000 0.036143600000000 0.053907800000000
-0.019684400000000 0.166450000000000 -0.016084500000000
-0.069100400000000 0.070380100000000 0.035288400000000
-0.077997000000000 0.077006500000000 0.033053500000000
-0.060910500000000 0.129726000000000 -0.008086100000000
-0.051071800000000 0.150131000000000 -0.003609520000000
-0.068988000000000 0.112332000000000 -0.010670900000000
-0.068968200000000 0.131180000000000 -0.009263230000000
-0.074031100000000 0.126736000000000 -0.008880140000000
-0.063848700000000 0.134155000000000 -0.008484030000000
-0.043170100000000 0.154491000000000 -0.008497610000000
-0.038459600000000 0.166750000000000 -0.013462200000000
-0.058001400000000 0.112742000000000 -0.016294200000000
-0.033376900000000 0.168247000000000 -0.016169700000000
-0.087252900000000 0.111759000000000 0.042884100000000
0.028259000000000 0.071780900000000 -0.022928900000000
0.027362600000000 0.071814400000000 -0.023694600000000
0.026445200000000 0.071852100000000 -0.024444200000000
0.025437300000000 0.071915700000000 -0.025212200000000
0.024457600000000 0.071970300000000 -0.025901000000000
0.023451400000000 0.072027400000000 -0.026549600000000
0.022424300000000 0.072078500000000 -0.027158200000000
0.021485100000000 0.072121800000000 -0.027678500000000
0.020385600000000 0.072147700000000 -0.028252200000000
0.019371700000000 0.072195600000000 -0.028746400000000
0.018350700000000 0.072223500000000 -0.029221000000000
0.017374900000000 0.072259800000000 -0.029663000000000
0.016346500000000 0.072285800000000 -0.030114300000000
0.015313400000000 0.072315100000000 -0.030556200000000
0.014279100000000 0.072344700000000 -0.030993600000000
0.013337100000000 0.072378700000000 -0.031388800000000
0.012389300000000 0.072392200000000 -0.031779600000000
0.011393600000000 0.072404600000000 -0.032181700000000
0.010399500000000 0.072426000000000 -0.032572500000000
0.009307650000000 0.072481900000000 -0.032985500000000
0.008259820000000 0.072532300000000 -0.033360800000000
0.007207100000000 0.072591000000000 -0.033714100000000
0.006224230000000 0.072599100000000 -0.034009900000000
0.005229910000000 0.072611400000000 -0.034282400000000
0.004257360000000 0.072601200000000 -0.034527900000000
0.003256820000000 0.072622700000000 -0.034764300000000
0.002273700000000 0.072615300000000 -0.034972900000000
0.001266900000000 0.072642400000000 -0.035186800000000
0.000259899000000 0.072665100000000 -0.035400100000000
-0.000728354000000 0.072661100000000 -0.035597400000000
-0.001712090000000 0.072653900000000 -0.035801000000000
-0.002665560000000 0.072617100000000 -0.035999800000000
-0.003645040000000 0.072604100000000 -0.036218600000000
-0.004644850000000 0.072619800000000 -0.036460500000000
-0.005645640000000 0.072631900000000 -0.036715100000000
-0.006642370000000 0.072647900000000 -0.036980300000000
-0.007692830000000 0.072722600000000 -0.037278700000000
-0.008744410000000 0.072796800000000 -0.037577900000000
-0.009716230000000 0.072778600000000 -0.037842700000000
-0.010693100000000 0.072765500000000 -0.038104700000000
-0.011720000000000 0.072808500000000 -0.038379400000000
-0.012724500000000 0.072829900000000 -0.038623300000000
-0.013737300000000 0.072846500000000 -0.038842500000000
-0.014737500000000 0.072850600000000 -0.039035200000000
-0.015745000000000 0.072851400000000 -0.039198200000000
-0.016748800000000 0.072835700000000 -0.039311400000000
-0.017759400000000 0.072824500000000 -0.039386600000000
-0.018777300000000 0.072812700000000 -0.039422100000000
-0.019799100000000 0.072805000000000 -0.039412600000000
-0.020838700000000 0.072777600000000 -0.039354700000000
-0.021926900000000 0.072720900000000 -0.039227400000000
-0.023020400000000 0.072675300000000 -0.038953700000000
-0.024137300000000 0.072592600000000 -0.038432900000000
-0.025209700000000 0.072515200000000 -0.037804800000000
-0.026283200000000 0.072423400000000 -0.037058200000000
-0.027256700000000 0.072383800000000 -0.036301900000000
-0.028232200000000 0.072331100000000 -0.035419400000000
0.010180800000000 0.103155000000000 -0.021114000000000
-0.076121200000000 0.106461000000000 -0.009242650000000
-0.069041500000000 0.138522000000000 -0.008517850000000
-0.065127900000000 0.160537000000000 -0.058219000000000
-0.056951200000000 0.111287000000000 -0.017326900000000
0.009193800000000 0.103188000000000 -0.021130900000000
-0.034702300000000 0.071156700000000 -0.018370500000000
-0.035749400000000 0.071051400000000 -0.017533400000000
-0.036691700000000 0.071122900000000 -0.017052400000000
-0.037719300000000 0.070969600000000 -0.016947500000000
-0.038719600000000 0.071030300000000 -0.016939500000000
-0.039713200000000 0.071037400000000 -0.016910300000000
-0.040724600000000 0.071198500000000 -0.016941000000000
-0.041713700000000 0.071316000000000 -0.016933400000000
-0.042701100000000 0.071390400000000 -0.016896300000000
-0.043689300000000 0.071376500000000 -0.016797800000000
-0.044681300000000 0.071037000000000 -0.016984600000000
-0.045760700000000 0.070900100000000 -0.016584200000000
-0.046800800000000 0.070811300000000 -0.016194000000000
-0.047841900000000 0.070725700000000 -0.015786600000000
-0.048735500000000 0.070518500000000 -0.015732100000000
-0.049718500000000 0.070521200000000 -0.015661000000000
-0.050724500000000 0.070594100000000 -0.015665900000000
-0.051733700000000 0.070657600000000 -0.015698300000000
-0.052737200000000 0.070710800000000 -0.015752500000000
-0.053736700000000 0.070699200000000 -0.015773500000000
-0.054732700000000 0.070746800000000 -0.015832000000000
-0.055727300000000 0.070803500000000 -0.015884600000000
-0.056726500000000 0.070729100000000 -0.015832500000000
-0.057727900000000 0.070732000000000 -0.015813500000000
-0.058734800000000 0.070691100000000 -0.015717300000000
-0.059746100000000 0.070670200000000 -0.015588000000000
-0.060762900000000 0.070616500000000 -0.015360600000000
-0.061810100000000 0.070471000000000 -0.014951800000000
-0.062893700000000 0.070245000000000 -0.014331900000000
-0.063964800000000 0.070080900000000 -0.013633200000000
-0.064948400000000 0.070087700000000 -0.013057100000000
-0.065965800000000 0.070014900000000 -0.012277800000000
-0.066986900000000 0.069915900000000 -0.011386700000000
-0.067918300000000 0.070018700000000 -0.010747600000000
-0.068835500000000 0.070073700000000 -0.010014800000000
-0.070164900000000 0.069407900000000 -0.007918980000000
-0.071067600000000 0.069509100000000 -0.007143330000000
-0.071866300000000 0.069784100000000 -0.006660780000000
0.008203340000000 0.103143000000000 -0.021191400000000
-0.065126100000000 0.109749000000000 -0.014271400000000
-0.011179200000000 0.177280000000000 -0.030170100000000
-0.021841500000000 0.176919000000000 -0.018974300000000
-0.049396000000000 0.160658000000000 -0.006268990000000
-0.067368400000000 0.176744000000000 -0.059245000000000
-0.084947200000000 0.117039000000000 0.048300700000000
-0.056073700000000 0.067307500000000 0.037026100000000
-0.079385000000000 0.069867400000000 0.013981200000000
-0.065163900000000 0.061965000000000 0.023710900000000
-0.016863800000000 0.180062000000000 -0.024888700000000
-0.058019100000000 0.108486000000000 -0.018070100000000
-0.053058700000000 0.070865700000000 0.040041700000000
-0.016296700000000 0.178608000000000 -0.026056100000000
-0.024643100000000 0.176684000000000 -0.016727100000000
0.007164740000000 0.103072000000000 -0.021286300000000
-0.077084700000000 0.106392000000000 -0.008537750000000
-0.064451700000000 0.175440000000000 -0.061936600000000
-0.057259300000000 0.154641000000000 -0.000768791000000
-0.063903300000000 0.061180000000000 0.022899700000000
-0.067987700000000 0.153320000000000 -0.050192900000000
-0.071753100000000 0.063803400000000 0.019096600000000
-0.089018800000000 0.113917000000000 0.044927900000000
-0.052011000000000 0.147245000000000 -0.002042520000000
-0.061906700000000 0.129729000000000 -0.008380370000000
0.006143550000000 0.103039000000000 -0.021394500000000
-0.075019300000000 0.110707000000000 -0.007855990000000
-0.020085200000000 0.177050000000000 -0.020663200000000
-0.042217500000000 0.155927000000000 -0.009636960000000
-0.075046900000000 0.126723000000000 -0.008626690000000
-0.086155100000000 0.118940000000000 -0.001736300000000
-0.069981600000000 0.117958000000000 -0.008900160000000
-0.070071500000000 0.138511000000000 -0.008404870000000
-0.061940600000000 0.138492000000000 -0.007148530000000
-0.065216900000000 0.166724000000000 -0.059813800000000
0.005125590000000 0.103014000000000 -0.021527000000000
0.028319200000000 0.073189200000000 -0.023008800000000
0.027289900000000 0.073257400000000 -0.023866600000000
0.026352300000000 0.073305200000000 -0.024596500000000
0.025384600000000 0.073355900000000 -0.025288000000000
0.024388700000000 0.073405400000000 -0.025942400000000
0.023372500000000 0.073450000000000 -0.026559400000000
0.022442800000000 0.073485800000000 -0.027080800000000
0.021500500000000 0.073522900000000 -0.027583300000000
0.020492700000000 0.073551200000000 -0.028092500000000
0.019474800000000 0.073594600000000 -0.028584600000000
0.018454200000000 0.073626300000000 -0.029062400000000
0.017481500000000 0.073659600000000 -0.029512300000000
0.016456100000000 0.073688000000000 -0.029982300000000
0.015429700000000 0.073713700000000 -0.030449100000000
0.014452900000000 0.073747000000000 -0.030893200000000
0.013476400000000 0.073773000000000 -0.031333700000000
0.012497200000000 0.073786900000000 -0.031773800000000
0.011516700000000 0.073805700000000 -0.032206500000000
0.010394600000000 0.073862300000000 -0.032686300000000
0.009322800000000 0.073901300000000 -0.033121000000000
0.008231530000000 0.073970800000000 -0.033538800000000
0.007216890000000 0.073995500000000 -0.033893300000000
0.006200890000000 0.074025300000000 -0.034217700000000
0.005238720000000 0.074020800000000 -0.034493800000000
0.004243020000000 0.074035800000000 -0.034759500000000
0.003245100000000 0.074051800000000 -0.035005400000000
0.002266610000000 0.074048500000000 -0.035226900000000
0.001260990000000 0.074070000000000 -0.035450500000000
0.000253374000000 0.074089400000000 -0.035668900000000
-0.000730635000000 0.074087400000000 -0.035880400000000
-0.001709620000000 0.074079200000000 -0.036088900000000
-0.002676210000000 0.074037900000000 -0.036297700000000
-0.003663350000000 0.074053900000000 -0.036531500000000
-0.004665230000000 0.074066400000000 -0.036774200000000
-0.005670900000000 0.074085400000000 -0.037026500000000
-0.006667220000000 0.074105600000000 -0.037282700000000
-0.007726190000000 0.074178500000000 -0.037569400000000
-0.008724370000000 0.074195200000000 -0.037828500000000
-0.009728660000000 0.074214500000000 -0.038086200000000
-0.010684000000000 0.074190900000000 -0.038321100000000
-0.011698400000000 0.074210300000000 -0.038562900000000
-0.012711500000000 0.074229100000000 -0.038788300000000
-0.013727200000000 0.074248200000000 -0.038994300000000
-0.014734100000000 0.074254800000000 -0.039174700000000
-0.015745700000000 0.074263000000000 -0.039329200000000
-0.016754800000000 0.074256700000000 -0.039444100000000
-0.017762800000000 0.074235200000000 -0.039522300000000
-0.018785100000000 0.074226100000000 -0.039559500000000
-0.019802200000000 0.074238800000000 -0.039559100000000
-0.020823100000000 0.074234500000000 -0.039514100000000
-0.021894400000000 0.074189100000000 -0.039418800000000
-0.022994700000000 0.074139300000000 -0.039212700000000
-0.024142900000000 0.074052700000000 -0.038783900000000
-0.025198000000000 0.073993100000000 -0.038215600000000
-0.026240100000000 0.073927800000000 -0.037559800000000
-0.027300800000000 0.073845000000000 -0.036794900000000
-0.028251500000000 0.073802400000000 -0.036011600000000
0.004127880000000 0.103023000000000 -0.021673900000000
-0.078134100000000 0.106358000000000 -0.007681630000000
0.003132470000000 0.103039000000000 -0.021844300000000
-0.075175700000000 0.138440000000000 -0.006936670000000
-0.063971600000000 0.160556000000000 -0.058023300000000
-0.011164700000000 0.172202000000000 -0.024198500000000
-0.034715200000000 0.072712800000000 -0.020008700000000
-0.035835900000000 0.072477900000000 -0.018279000000000
-0.036732500000000 0.072529700000000 -0.018002800000000
-0.037724500000000 0.072462500000000 -0.017532200000000
-0.038731600000000 0.072467800000000 -0.017494000000000
-0.039726100000000 0.072482300000000 -0.017462000000000
-0.040724500000000 0.072590900000000 -0.017458100000000
-0.041722600000000 0.072710200000000 -0.017433000000000
-0.042639600000000 0.072615800000000 -0.017765100000000
-0.043630300000000 0.072602000000000 -0.017653600000000
-0.044680400000000 0.072513300000000 -0.017452800000000
-0.045722300000000 0.072414700000000 -0.017097300000000
-0.046797700000000 0.072277800000000 -0.016702400000000
-0.047724600000000 0.072066700000000 -0.016567400000000
-0.048731100000000 0.071893500000000 -0.016418300000000
-0.049723800000000 0.071889700000000 -0.016389600000000
-0.050724200000000 0.071931700000000 -0.016421400000000
-0.051731200000000 0.071971500000000 -0.016476900000000
-0.052734300000000 0.072072000000000 -0.016589300000000
-0.053729000000000 0.072110500000000 -0.016661000000000
