-0.041668 0.059268 -0.012139 0.132873 -0.257299 -0.957153
-0.042662 0.059274 -0.012269 0.086025 -0.257795 -0.962362
-0.043657 0.059261 -0.012307 0.020782 -0.266760 -0.963539
-0.044650 0.059255 -0.012304 -0.055572 -0.278723 -0.958762
-0.045644 0.059225 -0.012070 0.137004 0.295243 0.945548
-0.046628 0.059230 -0.012031 0.215808 0.288293 0.932906
-0.047637 0.059193 -0.011823 0.290799 0.281835 0.914333
-0.048637 0.059151 -0.011457 0.357847 0.264711 0.895474
-0.049631 0.059093 -0.010821 0.462308 0.270957 0.844306
-0.050618 0.059026 -0.010043 0.524738 0.267261 0.808222
-0.051624 0.058953 -0.009293 0.565645 0.264924 0.780936
-0.052628 0.058880 -0.008542 0.619335 0.253755 0.742989
-0.053604 0.058817 -0.007763 0.698886 0.241023 0.673399
-0.075872 0.109158 -0.007652 0.599795 -0.370900 0.708998
-0.062934 0.109643 -0.015129 0.464093 -0.327094 0.823181
-0.036089 0.159232 -0.012431 -0.148883 -0.480078 -0.864499
-0.016207 0.174195 -0.024709 -0.525129 -0.346069 -0.777480
-0.048876 0.107007 -0.019273 0.076313 -0.300699 0.950661
-0.049875 0.106996 -0.019254 0.132021 -0.257943 0.957097
-0.055908 0.112628 -0.016512 0.215828 -0.466398 0.857841
-0.069833 0.112058 0.046585 0.323215 -0.879132 0.350227
-0.027862 0.098717 -0.023745 0.198631 -0.162472 0.966514
-0.055026 0.131065 -0.005390 -0.380285 -0.158193 0.911240
-0.058882 0.108299 -0.017343 0.287695 -0.287828 0.913448
-0.046091 0.156154 -0.007882 -0.397393 -0.288736 -0.871040
-0.035065 0.156323 -0.010574 -0.019985 -0.656289 -0.754245
-0.020861 0.101617 -0.023842 -0.071138 -0.225393 0.971667
-0.021861 0.101624 -0.023870 -0.087377 -0.191937 0.977510
-0.079463 0.070254 0.011890 0.680369 0.730564 0.058091
-0.022860 0.101618 -0.023963 0.012994 -0.179428 0.983685
-0.023862 0.101613 -0.023867 0.043145 -0.164506 0.985432
-0.024866 0.101609 -0.023785 0.070182 -0.154375 0.985517
-0.064926 0.112407 -0.012703 0.461887 -0.404607 0.789274
-0.026875 0.105825 -0.022448 0.118129 -0.442676 0.888867
-0.025865 0.101595 -0.023743 0.098178 -0.141464 0.985063
-0.026864 0.101582 -0.023610 0.145369 -0.132540 0.980460
-0.027860 0.101566 -0.023449 0.182241 -0.123657 0.975447
-0.028858 0.101545 -0.023192 0.213041 -0.112195 0.970580
-0.029871 0.101527 -0.022859 0.222926 -0.118391 0.967619
-0.030863 0.101511 -0.022704 0.206554 -0.126638 0.970205
-0.041174 0.165162 -0.011369 0.550394 -0.099648 0.828937
-0.031868 0.101497 -0.022474 0.179010 -0.159434 0.970843
-0.076008 0.141318 -0.005968 0.432785 -0.053144 0.899929
-0.057035 0.129621 -0.006264 -0.355923 -0.119386 0.926858
-0.064269 0.171043 -0.060984 0.476559 0.107766 0.872513
-0.049072 0.151664 -0.004618 -0.287913 -0.366724 -0.884658
-0.064287 0.172466 -0.061133 0.480281 0.089887 0.872497
-0.033092 0.160760 -0.013689 -0.126925 -0.444897 -0.886542
-0.052889 0.108408 -0.018776 0.157558 -0.210262 0.964865
-0.032870 0.101492 -0.022355 0.161905 -0.203518 0.965592
-0.033869 0.101480 -0.022225 0.158129 -0.249813 0.955295
-0.076856 0.117877 -0.006591 0.389247 0.279612 0.877670
-0.077878 0.117832 -0.005993 0.454368 0.282066 0.844978
-0.034870 0.101474 -0.022105 0.165720 -0.285616 0.943907
-0.035863 0.101452 -0.021943 0.173658 -0.303443 0.936891
-0.036856 0.101427 -0.021781 0.170558 -0.313809 0.934042
0.022277 0.062086 -0.025792 -0.541187 0.013774 0.840790
0.021339 0.062109 -0.026271 -0.491168 0.082300 0.867168
0.020308 0.062178 -0.026981 -0.436107 0.146308 0.887921
0.019299 0.062217 -0.027474 -0.403148 0.177072 0.897840
0.018303 0.062243 -0.027863 -0.384016 0.196671 0.902138
0.017316 0.062266 -0.028279 -0.365729 0.210017 0.906717
0.016300 0.062311 -0.028745 -0.336422 0.228609 0.913542
0.015324 0.062330 -0.029194 -0.300437 0.236841 0.923928
0.014309 0.062363 -0.029536 -0.270417 0.241151 0.932052
0.013307 0.062355 -0.029682 -0.261653 0.247786 0.932813
0.012312 0.062375 -0.029934 -0.268598 0.254935 0.928904
0.011289 0.062441 -0.030357 -0.277074 0.267800 0.922775
0.010301 0.062457 -0.030780 -0.273881 0.283249 0.919108
0.009340 0.062434 -0.031044 -0.245508 0.305683 0.919937
0.008316 0.062437 -0.031247 -0.226936 0.320621 0.919620
0.007302 0.062446 -0.031374 -0.240786 0.328567 0.913272
0.006309 0.062482 -0.031587 -0.289676 0.328993 0.898806
0.005325 0.062505 -0.031991 -0.348192 0.304316 0.886653
0.004303 0.062577 -0.032554 -0.391443 0.266077 0.880895
0.003302 0.062620 -0.033057 -0.378237 0.241855 0.893556
0.002288 0.062667 -0.033537 -0.294888 0.219656 0.929942
0.001331 0.062692 -0.033961 -0.257513 0.213809 0.942323
0.000301 0.062695 -0.034091 -0.215304 0.199461 0.955960
-0.000697 0.062689 -0.034110 -0.201781 0.177583 0.963197
-0.001715 0.062736 -0.034540 -0.210344 0.154319 0.965371
-0.002716 0.062764 -0.034907 -0.228108 0.131111 0.964768
-0.003709 0.062771 -0.035070 -0.219349 0.114484 0.968906
-0.004707 0.062777 -0.035214 -0.178269 0.106453 0.978206
-0.005711 0.062794 -0.035461 -0.121583 0.111872 0.986257
-0.006708 0.062787 -0.035498 -0.103160 0.127917 0.986405
-0.007711 0.062793 -0.035613 -0.092221 0.158555 0.983034
-0.008702 0.062785 -0.035645 -0.132729 0.190284 0.972715
-0.009703 0.062793 -0.035735 -0.199352 0.215325 0.955978
-0.010708 0.062812 -0.035965 -0.240428 0.221169 0.945134
-0.011709 0.062842 -0.036331 -0.234540 0.186199 0.954107
-0.012703 0.062852 -0.036630 -0.181620 0.221094 0.958192
-0.013718 0.062876 -0.036834 -0.099119 0.234912 0.966950
-0.014717 0.062875 -0.036820 0.020365 0.271966 0.962091
-0.015719 0.062837 -0.036601 0.106544 0.300905 0.947684
-0.016725 0.062800 -0.036225 0.164151 0.311514 0.935956
-0.017728 0.062782 -0.036086 0.217510 0.318090 0.922772
-0.018731 0.062766 -0.035965 0.261489 0.332377 0.906173
-0.019734 0.062738 -0.035707 0.330642 0.339653 0.880518
-0.020750 0.062682 -0.035221 0.382594 0.339245 0.859381
-0.021731 0.062651 -0.034667 0.468212 0.339392 0.815837
-0.022723 0.062595 -0.034019 0.536333 0.318858 0.781458
-0.023714 0.062529 -0.033248 0.567978 0.306006 0.764043
-0.037862 0.101418 -0.021555 0.148934 -0.308772 0.939403
0.005114 0.110170 -0.020279 -0.067705 -0.062657 0.995736
-0.057970 0.125253 -0.007383 -0.262221 -0.255230 0.930644
-0.025105 0.162299 -0.015100 0.003844 -0.564598 -0.825357
-0.015203 0.169730 -0.022585 -0.436779 -0.517894 -0.735534
-0.023167 0.169718 -0.019503 -0.250089 -0.366562 -0.896152
-0.032141 0.169680 -0.016131 0.438128 -0.070758 0.896123
-0.038857 0.101401 -0.021412 0.110178 -0.291645 0.950160
-0.039861 0.101404 -0.021238 0.057637 -0.256197 0.964905
-0.033669 0.060734 -0.012791 0.536588 0.435521 0.722769
-0.034663 0.060710 -0.012538 -0.301229 -0.439852 -0.846045
-0.035664 0.060693 -0.012407 -0.180898 -0.438446 -0.880364
-0.036661 0.060670 -0.012154 -0.075297 -0.408945 -0.909447
-0.037661 0.060674 -0.012276 -0.027751 -0.390516 -0.920178
-0.038663 0.060663 -0.011982 0.019983 -0.356224 -0.934187
-0.039667 0.060685 -0.012067 0.064869 -0.349967 -0.934514
-0.040674 0.060690 -0.012187 0.101107 -0.331524 -0.938013
-0.041673 0.060715 -0.012417 0.116966 -0.308176 -0.944111
-0.042679 0.060742 -0.012620 0.091806 -0.308526 -0.946775
-0.043663 0.060739 -0.012777 0.015991 -0.305833 -0.951951
-0.044653 0.060731 -0.012789 -0.068654 -0.296436 -0.952582
-0.045654 0.060692 -0.012578 0.140215 0.298348 0.944102
-0.046654 0.060657 -0.012350 0.220857 0.283964 0.933052
-0.047658 0.060629 -0.012114 0.306551 0.263580 0.914632
-0.048655 0.060601 -0.011852 0.373151 0.244425 0.894994
-0.049639 0.060558 -0.011324 0.460121 0.234462 0.856339
-0.050636 0.060489 -0.010567 0.520667 0.240036 0.819322
-0.051620 0.060437 -0.009912 0.555080 0.246368 0.794474
-0.052632 0.060361 -0.009173 0.613303 0.232147 0.754961
-0.053632 0.060289 -0.008413 0.681693 0.226449 0.695712
-0.054609 0.060181 -0.007133 0.750231 0.247279 0.613194
-0.055522 0.060057 -0.005540 0.809555 0.347721 0.472981
-0.040855 0.101386 -0.021292 0.023372 -0.216704 0.975957
-0.041855 0.101378 -0.021377 -0.029029 -0.165875 0.985720
-0.042855 0.101381 -0.021411 -0.047585 -0.138878 0.989166
-0.050883 0.106998 -0.019163 0.097563 -0.241674 0.965440
-0.051887 0.106988 -0.019045 0.144619 -0.221933 0.964277
-0.071910 0.125286 -0.008633 0.134720 0.084081 0.987310
-0.071639 0.067526 0.026503 -0.507148 -0.799684 0.321413
-0.058462 0.071709 0.039721 -0.153575 -0.624180 0.766038
-0.055004 0.145721 -0.001438 0.126971 -0.087122 -0.988073
-0.054028 0.131061 -0.005002 -0.435022 -0.182141 0.881805
-0.043855 0.101385 -0.021453 -0.069744 -0.115722 0.990830
-0.063932 0.123848 -0.008873 -0.067164 -0.030057 0.997289
-0.078857 0.120751 -0.006088 0.489433 0.130514 0.862219
-0.064952 0.126767 -0.008753 -0.084439 -0.033743 0.995857
-0.044856 0.101383 -0.021469 -0.075638 -0.126103 0.989129
-0.045856 0.101380 -0.021541 -0.027790 -0.135979 0.990322
-0.046856 0.101377 -0.021545 -0.032777 -0.181788 0.982791
-0.069910 0.112240 -0.010010 0.433870 -0.384461 0.814829
-0.070906 0.123821 -0.008629 0.124947 0.037283 0.991463
-0.061012 0.134041 -0.007112 -0.298454 -0.154526 0.941832
-0.073938 0.132552 -0.007663 0.254681 -0.156646 0.954253
-0.064971 0.129694 -0.008754 -0.146852 -0.077225 0.986139
-0.063976 0.129691 -0.008514 -0.186098 -0.080117 0.979259
-0.062142 0.141343 -0.006298 0.563407 0.117633 -0.817762
-0.047858 0.101383 -0.021574 -0.005761 -0.216460 0.976274
-0.048859 0.101383 -0.021580 0.011509 -0.256202 0.966555
-0.038166 0.165183 -0.013150 0.483856 -0.006397 0.875124
-0.052890 0.106976 -0.018917 0.177063 -0.209675 0.961606
-0.049863 0.101385 -0.021584 0.041322 -0.287611 0.956856
-0.055053 0.129598 -0.005585 0.382871 0.115535 -0.916549
-0.028166 0.172670 -0.018055 0.498632 -0.086574 0.862479
-0.067930 0.125304 -0.008872 0.011066 0.013335 0.999850
-0.077891 0.126656 -0.007021 0.458154 -0.018766 0.888675
-0.077957 0.132491 -0.005925 0.502867 -0.166069 0.848260
-0.054887 0.108372 -0.018378 0.199196 -0.196877 0.959979
-0.053899 0.108397 -0.018551 0.183846 -0.203003 0.961764
-0.061896 0.108239 -0.016215 0.401092 -0.346131 0.848126
-0.053892 0.106961 -0.018670 0.192760 -0.193171 0.962044
-0.075864 0.117897 -0.006982 0.359772 0.264970 0.894626
-0.050862 0.101367 -0.021539 0.083102 -0.312223 0.946367
-0.051865 0.101358 -0.021421 0.144462 -0.323605 0.935099
-0.052885 0.101359 -0.021211 0.214963 -0.348628 0.912277
0.023309 0.063434 -0.024957 -0.659779 -0.032965 0.750737
0.022287 0.063515 -0.025946 -0.595485 0.096557 0.797542
0.021338 0.063555 -0.026658 -0.524425 0.163777 0.835557
0.020325 0.063600 -0.027281 -0.446583 0.209217 0.869938
0.019297 0.063662 -0.027863 -0.404477 0.215574 0.888778
0.018312 0.063683 -0.028284 -0.391554 0.207470 0.896461
0.017299 0.063727 -0.028766 -0.375801 0.203940 0.903981
0.016311 0.063748 -0.029181 -0.347443 0.205469 0.914913
0.015313 0.063775 -0.029570 -0.316964 0.205925 0.925812
0.014305 0.063807 -0.029926 -0.290361 0.208667 0.933889
0.013317 0.063808 -0.030093 -0.284466 0.206487 0.936185
0.012307 0.063842 -0.030449 -0.294329 0.197952 0.934979
0.011286 0.063888 -0.030886 -0.304322 0.175515 0.936260
0.010288 0.063916 -0.031272 -0.309379 0.171121 0.935416
0.009305 0.063928 -0.031578 -0.284868 0.193005 0.938935
0.008313 0.063939 -0.031867 -0.275684 0.193206 0.941631
0.007299 0.063962 -0.032067 -0.284719 0.213895 0.934443
0.006292 0.063981 -0.032302 -0.308051 0.217737 0.926118
0.005295 0.064011 -0.032686 -0.336156 0.199354 0.920466
0.004296 0.064052 -0.033197 -0.354790 0.168377 0.919659
0.003296 0.064080 -0.033574 -0.337189 0.120976 0.933632
0.002299 0.064103 -0.033964 -0.282781 0.107920 0.953094
0.001305 0.064139 -0.034326 -0.210565 0.086320 0.973761
0.000292 0.064134 -0.034343 -0.175829 0.074802 0.981574
-0.000698 0.064120 -0.034269 -0.150218 0.059990 0.986831
-0.001709 0.064136 -0.034491 -0.156275 0.033903 0.987132
-0.002711 0.064164 -0.034865 -0.182656 0.001754 0.983175
-0.003711 0.064181 -0.035098 -0.203181 -0.026797 0.978774
-0.004714 0.064189 -0.035218 -0.180248 -0.024713 0.983311
-0.005717 0.064205 -0.035450 -0.144834 -0.008998 0.989415
-0.006718 0.064210 -0.035569 -0.127411 0.014321 0.991747
-0.007719 0.064216 -0.035684 -0.140092 0.043518 0.989182
-0.008716 0.064209 -0.035723 -0.159599 0.062207 0.985220
-0.009723 0.064228 -0.035926 -0.227423 0.093192 0.969327
-0.010719 0.064245 -0.036202 -0.259151 0.102258 0.960408
-0.011717 0.064272 -0.036589 -0.272410 0.113175 0.955502
-0.012704 0.064273 -0.036767 -0.238443 0.143411 0.960509
-0.013723 0.064309 -0.037071 -0.183553 0.183384 0.965753
-0.014722 0.064323 -0.037347 -0.069374 0.249723 0.965829
-0.015723 0.064292 -0.037277 0.031662 0.304904 0.951857
-0.016733 0.064271 -0.036995 0.149768 0.346070 0.926178
-0.017740 0.064229 -0.036622 0.208356 0.358034 0.910165
-0.018753 0.064191 -0.036386 0.256126 0.361091 0.896668
-0.019738 0.064191 -0.036213 0.314270 0.366227 0.875849
-0.020738 0.064156 -0.035820 0.377170 0.361627 0.852625
-0.021716 0.064136 -0.035402 0.441263 0.357694 0.823008
-0.022741 0.064042 -0.034547 0.533243 0.346234 0.771864
-0.023719 0.063984 -0.033754 0.586929 0.324145 0.741920
-0.024726 0.063900 -0.032873 0.635839 0.307246 0.708031
-0.053886 0.101336 -0.020937 0.302742 -0.344822 0.888507
-0.065998 0.135528 -0.008207 -0.124206 -0.092669 0.987920
-0.035141 0.166693 -0.014879 0.439160 0.017147 0.898245
-0.053967 0.068780 0.037958 -0.007001 -0.552063 0.833773
-0.024147 0.169732 -0.019318 -0.269136 -0.337403 -0.902067
-0.033144 0.169673 -0.015632 0.472746 -0.108504 0.874493
-0.064291 0.169609 -0.060793 0.479689 0.133313 0.867252
-0.054887 0.101301 -0.020549 0.377225 -0.322544 0.868140
-0.033676 0.062222 -0.013553 0.562019 0.452407 0.692433
-0.034671 0.062187 -0.013173 -0.369116 -0.444165 -0.816377
-0.035671 0.062174 -0.013044 -0.207578 -0.450369 -0.868377
-0.036671 0.062169 -0.013042 -0.091716 -0.431460 -0.897458
-0.037666 0.062196 -0.012972 -0.060777 -0.432906 -0.899388
-0.038668 0.062164 -0.012730 -0.025777 -0.422837 -0.905839
-0.039671 0.062163 -0.012718 0.024104 -0.417987 -0.908133
-0.040677 0.062178 -0.012810 0.074629 -0.389709 -0.917909
-0.041681 0.062209 -0.013027 0.081869 -0.378098 -0.922138
-0.042675 0.062201 -0.013185 0.058287 -0.362185 -0.930282
-0.043668 0.062194 -0.013186 0.003202 -0.355849 -0.934538
-0.044664 0.062175 -0.013220 -0.076334 -0.332293 -0.940082
-0.045652 0.062179 -0.013190 -0.141795 -0.326766 -0.934408
-0.046679 0.062098 -0.012794 0.247135 0.291691 0.924035
-0.047662 0.062075 -0.012369 0.340227 0.251256 0.906154
-0.048655 0.062059 -0.012226 0.401523 0.238867 0.884151
-0.049644 0.062014 -0.011706 0.467516 0.213312 0.857862
-0.050653 0.061940 -0.010960 0.510279 0.202167 0.835909
-0.051639 0.061888 -0.010310 0.544085 0.210843 0.812107
-0.052640 0.061828 -0.009665 0.603287 0.225045 0.765114
-0.053590 0.061770 -0.008868 0.651123 0.243306 0.718917
-0.054560 0.061660 -0.007458 0.693688 0.316905 0.646814
-0.055562 0.061542 -0.006079 0.713893 0.424642 0.556809
-0.056480 0.061380 -0.004591 -0.616345 -0.612433 -0.495019
-0.057653 0.061270 -0.003721 -0.471543 -0.740870 -0.478287
-0.058573 0.061367 -0.003342 -0.356272 -0.800721 -0.481576
-0.059608 0.061416 -0.002897 -0.263638 -0.852866 -0.450683
-0.060630 0.061352 -0.002657 -0.236161 -0.873784 -0.425122
-0.061602 0.061450 -0.002735 -0.209904 -0.888750 -0.407510
-0.062546 0.061453 -0.002157 -0.233344 -0.906174 -0.352703
-0.063538 0.061476 -0.001919 -0.292390 -0.901054 -0.320328
-0.054874 0.106930 -0.018479 0.192751 -0.185987 0.963460
-0.055886 0.106922 -0.018263 0.192439 -0.178631 0.964913
-0.056886 0.106915 -0.018141 0.192152 -0.195377 0.961720
-0.078943 0.132461 -0.005226 0.515478 -0.170163 0.839837
-0.040049 0.154783 -0.008928 -0.145448 -0.546902 -0.824466
-0.025569 0.035660 0.053139 0.014995 0.793288 -0.608662
-0.057034 0.131087 -0.006178 -0.371349 -0.143606 0.917320
-0.055895 0.101262 -0.019927 0.365843 -0.293398 0.883219
-0.071930 0.112190 -0.008896 0.467103 -0.371548 0.802351
-0.013244 0.178631 -0.028421 0.505423 0.120441 0.854425
-0.062939 0.123840 -0.008816 -0.075473 -0.058675 0.995420
-0.079851 0.120721 -0.005410 0.487625 0.154254 0.859318
-0.068937 0.126774 -0.008927 0.003789 0.044408 0.999006
-0.056890 0.101220 -0.019299 0.334838 -0.253537 0.907525
-0.069931 0.126779 -0.009001 0.039208 0.048913 0.998033
-0.057882 0.101192 -0.019039 0.271388 -0.209216 0.939456
-0.058873 0.101172 -0.018907 0.204844 -0.151386 0.967017
-0.059869 0.101152 -0.018759 0.178466 -0.092722 0.979567
-0.060029 0.134031 -0.006836 -0.329011 -0.159073 0.930831
-0.081983 0.132406 -0.003401 0.538459 -0.275901 0.796204
-0.060871 0.101136 -0.018633 0.207726 -0.043657 0.977212
-0.061927 0.109672 -0.015635 0.418450 -0.343783 0.840662
-0.061867 0.101123 -0.018485 0.259094 -0.011782 0.965780
-0.079594 0.112319 0.046168 -0.263309 -0.631037 0.729700
-0.033128 0.165217 -0.015388 -0.254261 -0.231710 -0.938968
-0.026189 0.175640 -0.018835 0.564675 -0.155893 0.810456
-0.062867 0.101101 -0.018217 0.329266 -0.000772 0.944237
-0.056019 0.129616 -0.005912 -0.358789 -0.120308 0.925633
-0.057878 0.106898 -0.017986 0.210387 -0.230898 0.949960
-0.077749 0.074930 0.029356 0.735382 0.517826 -0.437116
-0.076934 0.126684 -0.007585 0.407041 -0.006494 0.913387
-0.078849 0.119288 -0.005811 0.508508 0.196702 0.838289
-0.058896 0.106893 -0.017658 0.244238 -0.278282 0.928928
-0.055887 0.108356 -0.018128 0.213684 -0.199845 0.956243
-0.043887 0.108471 -0.019159 0.130645 -0.459080 0.878736
-0.062926 0.108221 -0.015627 0.466153 -0.338745 0.817284
-0.073955 0.136937 -0.006914 0.300191 -0.121706 0.946083
-0.054118 0.157553 -0.002300 0.674631 -0.191161 0.712973
-0.063844 0.101082 -0.017771 0.404241 -0.014740 0.914533
-0.027886 0.105837 -0.022247 0.163032 -0.451628 0.877185
0.024272 0.064755 -0.023783 -0.666911 0.040314 0.744047
0.023297 0.064867 -0.025207 -0.698248 0.103949 0.708268
0.022316 0.064956 -0.026373 -0.641701 0.172064 0.747405
0.021313 0.065014 -0.027141 -0.536751 0.198728 0.820004
0.020318 0.065048 -0.027667 -0.450945 0.205354 0.868607
0.019289 0.065108 -0.028248 -0.395452 0.192315 0.898127
0.018300 0.065119 -0.028525 -0.379094 0.173340 0.908978
0.017283 0.065166 -0.028995 -0.362098 0.161209 0.918094
0.016297 0.065187 -0.029417 -0.341828 0.157828 0.926414
0.015296 0.065215 -0.029791 -0.306784 0.154504 0.939155
0.014296 0.065233 -0.030048 -0.268730 0.158442 0.950095
0.013284 0.065254 -0.030264 -0.248923 0.151799 0.956553
0.012291 0.065269 -0.030546 -0.277083 0.116305 0.953781
0.011302 0.065285 -0.030837 -0.300004 0.062778 0.951870
0.010282 0.065327 -0.031277 -0.313797 0.023043 0.949210
0.009294 0.065355 -0.031694 -0.321463 0.016979 0.946770
0.008295 0.065384 -0.032076 -0.310738 0.046585 0.949353
0.007296 0.065399 -0.032332 -0.303917 0.077685 0.949526
0.006292 0.065416 -0.032578 -0.303733 0.087488 0.948732
0.005283 0.065444 -0.032935 -0.315404 0.065666 0.946683
0.004300 0.065462 -0.033240 -0.316801 0.026882 0.948111
0.003294 0.065490 -0.033596 -0.314561 -0.023192 0.948954
0.002277 0.065518 -0.033927 -0.265243 -0.051480 0.962806
0.001285 0.065549 -0.034341 -0.205034 -0.058943 0.976978
0.000281 0.065555 -0.034456 -0.156855 -0.051796 0.986262
-0.000707 0.065547 -0.034389 -0.127538 -0.037419 0.991128
-0.001709 0.065541 -0.034399 -0.138317 -0.042717 0.989466
-0.002719 0.065551 -0.034576 -0.163778 -0.038329 0.985752
-0.003712 0.065557 -0.034745 -0.197443 -0.016438 0.980177
-0.004720 0.065574 -0.034960 -0.207941 0.003125 0.978136
-0.005714 0.065579 -0.035147 -0.171412 0.030583 0.984725
-0.006721 0.065597 -0.035334 -0.168747 0.032977 0.985108
-0.007721 0.065602 -0.035474 -0.168464 0.046627 0.984604
-0.008721 0.065607 -0.035591 -0.185657 0.053902 0.981135
-0.009720 0.065626 -0.035848 -0.221768 0.061350 0.973168
-0.010711 0.065652 -0.036250 -0.273006 0.076765 0.958945
-0.011726 0.065681 -0.036578 -0.318289 0.111992 0.941355
-0.012707 0.065682 -0.036774 -0.294472 0.136453 0.945868
-0.013724 0.065724 -0.037234 -0.233691 0.171528 0.957061
-0.014728 0.065750 -0.037611 -0.172320 0.194973 0.965552
-0.015727 0.065754 -0.037752 -0.065202 0.232055 0.970515
-0.016731 0.065755 -0.037712 0.061134 0.294743 0.953619
-0.017735 0.065722 -0.037482 0.154426 0.330354 0.931139
-0.018740 0.065691 -0.037237 0.232063 0.347771 0.908406
-0.019746 0.065651 -0.036857 0.304311 0.368011 0.878614
-0.020743 0.065618 -0.036465 0.361800 0.374216 0.853852
-0.021766 0.065545 -0.035856 0.438209 0.375053 0.816889
-0.022742 0.065515 -0.035305 0.508398 0.377789 0.773826
-0.023738 0.065451 -0.034534 0.562489 0.367951 0.740417
-0.024693 0.065394 -0.033599 0.614327 0.366034 0.699015
-0.064858 0.101039 -0.017304 0.453640 -0.032536 0.890591
-0.065823 0.100991 -0.016616 0.468861 -0.071280 0.880391
-0.065006 0.135525 -0.007973 -0.173367 -0.095255 0.980240
-0.060603 0.035219 0.044229 0.409248 0.744761 -0.527113
-0.077024 0.141306 -0.005453 0.488876 -0.127101 0.863044
-0.034139 0.169665 -0.015110 0.493749 -0.130984 0.859683
-0.065234 0.169622 -0.059968 0.663396 0.089291 0.742922
-0.066820 0.100942 -0.015963 0.452608 -0.145723 0.879722
-0.033686 0.063745 -0.014697 0.668097 0.415336 0.617368
-0.034679 0.063673 -0.013935 -0.385408 -0.447690 -0.806867
-0.035678 0.063659 -0.013806 -0.243988 -0.422156 -0.873071
-0.036680 0.063653 -0.013802 -0.112964 -0.432637 -0.894463
-0.037679 0.063671 -0.013756 -0.063747 -0.419431 -0.905546
-0.038679 0.063665 -0.013609 -0.030780 -0.422267 -0.905949
-0.039681 0.063672 -0.013582 0.011615 -0.428097 -0.903658
-0.040682 0.063670 -0.013578 0.048483 -0.435146 -0.899054
-0.041684 0.063667 -0.013720 0.060825 -0.433137 -0.899273
-0.042681 0.063664 -0.013863 0.026511 -0.415357 -0.909272
-0.043677 0.063638 -0.013758 -0.012597 -0.398623 -0.917029
-0.044668 0.063648 -0.013719 -0.098922 -0.383656 -0.918163
-0.045660 0.063631 -0.013587 -0.189716 -0.365494 -0.911275
-0.046654 0.063616 -0.013460 0.262414 0.352673 0.898199
-0.047692 0.063524 -0.012924 0.338802 0.303611 0.890524
-0.048681 0.063487 -0.012386 0.423683 0.273723 0.863463
-0.049648 0.063446 -0.011831 0.476485 0.251524 0.842436
-0.050633 0.063399 -0.011176 0.502474 0.238297 0.831105
-0.051631 0.063337 -0.010542 0.519411 0.241706 0.819628
-0.052610 0.063297 -0.010011 0.556502 0.285853 0.780124
-0.053627 0.063222 -0.009277 0.563102 0.346253 0.750350
-0.054542 0.063135 -0.007676 0.589112 0.430824 0.683621
-0.055536 0.062984 -0.006816 0.535008 0.497029 0.683176
-0.056663 0.062947 -0.006405 -0.394948 -0.666692 -0.632090
-0.057650 0.062947 -0.006121 -0.363123 -0.696297 -0.619123
-0.058648 0.062944 -0.005833 -0.231319 -0.750392 -0.619195
-0.059642 0.062931 -0.005548 -0.220538 -0.769718 -0.599080
-0.060635 0.062911 -0.005127 -0.203948 -0.796494 -0.569213
-0.061634 0.062865 -0.004729 -0.215933 -0.797237 -0.563725
-0.062640 0.062791 -0.004343 -0.232438 -0.805700 -0.544812
-0.063642 0.062708 -0.003682 -0.261703 -0.812759 -0.520513
-0.064586 0.062812 -0.003592 -0.340719 -0.781061 -0.523311
-0.065613 0.062670 -0.002838 -0.424469 -0.781251 -0.457682
-0.067868 0.100922 -0.015417 0.413957 -0.189344 0.890387
-0.021189 0.175661 -0.022011 0.515715 0.114849 0.849027
-0.059903 0.106882 -0.017409 0.284534 -0.318123 0.904344
-0.060901 0.106856 -0.017129 0.339345 -0.345185 0.875039
-0.037068 0.157759 -0.011359 -0.132844 -0.537572 -0.832687
-0.042062 0.154724 -0.008482 -0.213305 -0.483569 -0.848918
-0.027607 0.035649 0.052718 0.200727 0.785205 -0.585800
-0.056039 0.131064 -0.005755 -0.370135 -0.146641 0.917331
-0.073901 0.112096 -0.007697 0.554485 -0.345904 0.756899
-0.072904 0.112135 -0.008342 0.498886 -0.367542 0.784874
-0.063355 0.072024 0.038400 0.285330 0.614128 -0.735822
-0.061945 0.123832 -0.008703 -0.110088 -0.102665 0.988605
-0.081867 0.120683 -0.004333 0.430713 0.216330 0.876178
-0.080837 0.120705 -0.004841 0.463265 0.185425 0.866604
-0.068862 0.100890 -0.015028 0.381954 -0.232859 0.894364
-0.083884 0.120620 -0.003431 0.451851 0.260191 0.853306
-0.082891 0.120639 -0.003845 0.429864 0.225840 0.874193
-0.084858 0.120613 -0.002990 0.509210 0.282058 0.813110
-0.062008 0.134045 -0.007350 -0.252294 -0.150218 0.955920
-0.075866 0.116415 -0.006361 -0.385124 -0.314022 -0.867796
-0.083987 0.129456 -0.003273 0.598681 -0.287336 0.747676
-0.082965 0.129479 -0.004062 0.508703 -0.279287 0.814383
-0.075134 0.066909 0.015723 0.687471 0.721664 -0.081146
-0.070965 0.075468 0.037338 0.457756 0.463247 -0.758855
-0.025128 0.165250 -0.016804 -0.110154 -0.493272 -0.862872
-0.039177 0.165177 -0.012529 0.519757 -0.052667 0.852689
-0.068101 0.072620 0.036855 0.358264 0.572167 -0.737748
-0.069881 0.100876 -0.014557 0.377466 -0.266219 0.886931
-0.017135 0.165288 -0.018343 -0.173846 -0.647505 -0.741967
-0.061925 0.106845 -0.016657 0.391478 -0.360548 0.846611
-0.059038 0.135490 -0.006231 -0.417108 -0.143737 0.897419
-0.075930 0.126701 -0.007943 0.336439 0.012319 0.941625
-0.059010 0.131118 -0.006985 0.353929 0.108467 -0.928961
-0.060897 0.108264 -0.016606 0.364069 -0.342801 0.865992
-0.045897 0.108476 -0.018725 0.062192 -0.415910 0.907277
-0.044889 0.108464 -0.018926 0.107483 -0.446228 0.888441
-0.063911 0.108163 -0.014837 0.494238 -0.322589 0.807258
-0.079826 0.114817 -0.003499 -0.489280 -0.371207 -0.789183
-0.070852 0.100833 -0.014240 0.393111 -0.287027 0.873544
0.026280 0.066086 -0.022657 -0.612503 0.175735 0.770686
0.025298 0.066131 -0.023312 -0.644643 0.173729 0.744482
0.024330 0.066174 -0.023982 -0.681733 0.160431 0.713794
0.023241 0.066343 -0.025795 -0.690204 0.161666 0.705324
0.022283 0.066418 -0.026857 -0.625993 0.149952 0.765276
0.021300 0.066463 -0.027511 -0.537660 0.160248 0.827794
0.020320 0.066490 -0.028060 -0.439554 0.156090 0.884550
0.019326 0.066521 -0.028475 -0.382909 0.155081 0.910676
0.018312 0.066543 -0.028711 -0.357489 0.140882 0.923230
0.017299 0.066571 -0.029060 -0.345468 0.138771 0.928113
0.016282 0.066612 -0.029521 -0.341886 0.152504 0.927285
0.015294 0.066637 -0.029936 -0.326798 0.171070 0.929483
0.014276 0.066670 -0.030266 -0.243655 0.181319 0.952762
0.013301 0.066658 -0.030488 -0.198085 0.170771 0.965194
0.012291 0.066660 -0.030597 -0.201240 0.149399 0.968082
0.011286 0.066687 -0.030675 -0.216305 0.096268 0.971568
0.010274 0.066716 -0.031019 -0.259557 0.046078 0.964628
0.009276 0.066742 -0.031401 -0.309471 0.013801 0.950809
0.008277 0.066772 -0.031793 -0.334569 0.030588 0.941875
0.007272 0.066798 -0.032154 -0.313005 0.037943 0.948993
0.006283 0.066815 -0.032447 -0.271096 0.062361 0.960530
0.005290 0.066832 -0.032723 -0.251527 0.051871 0.966459
0.004292 0.066853 -0.032980 -0.273277 0.015195 0.961815
0.003289 0.066872 -0.033230 -0.259210 -0.046541 0.964699
0.002275 0.066896 -0.033561 -0.253682 -0.081928 0.963812
0.001268 0.066918 -0.033911 -0.221933 -0.084730 0.971373
0.000268 0.066936 -0.034172 -0.187651 -0.056036 0.980636
-0.000721 0.066949 -0.034352 -0.157348 -0.023332 0.987268
-0.001712 0.066944 -0.034401 -0.163179 0.010377 0.986542
-0.002710 0.066947 -0.034517 -0.213639 0.042814 0.975974
-0.003732 0.066963 -0.034674 -0.237619 0.095322 0.966670
-0.004708 0.066969 -0.034971 -0.232235 0.124462 0.964664
-0.005722 0.066981 -0.035266 -0.203656 0.139302 0.969082
-0.006726 0.067010 -0.035497 -0.177975 0.142068 0.973726
-0.007731 0.067018 -0.035582 -0.168258 0.141611 0.975518
-0.008715 0.067010 -0.035665 -0.180899 0.145482 0.972682
-0.009718 0.067039 -0.036001 -0.238371 0.151266 0.959322
-0.010734 0.067071 -0.036323 -0.299481 0.149379 0.942336
-0.011730 0.067086 -0.036589 -0.329390 0.187518 0.925386
-0.012706 0.067104 -0.037042 -0.311606 0.188807 0.931264
-0.013725 0.067148 -0.037507 -0.268767 0.180074 0.946223
-0.014734 0.067167 -0.037742 -0.165945 0.180821 0.969415
-0.015738 0.067188 -0.037968 -0.082667 0.183115 0.979610
-0.016740 0.067179 -0.038010 0.015851 0.216055 0.976252
-0.017741 0.067175 -0.037991 0.092665 0.236993 0.967082
-0.018753 0.067139 -0.037784 0.178453 0.280102 0.943237
-0.019754 0.067113 -0.037516 0.258869 0.313984 0.913455
-0.020761 0.067074 -0.037129 0.352649 0.354144 0.866153
-0.021766 0.067021 -0.036618 0.416879 0.365424 0.832272
-0.022744 0.066991 -0.036064 0.490023 0.384377 0.782389
-0.023740 0.066925 -0.035296 0.535814 0.381225 0.753373
-0.024734 0.066860 -0.034525 0.583529 0.388876 0.712930
-0.071866 0.100809 -0.013756 0.413118 -0.300042 0.859831
-0.055068 0.150156 -0.002190 0.281067 0.054833 0.958120
-0.064012 0.135519 -0.007720 -0.214684 -0.100237 0.971526
-0.061063 0.138403 -0.006548 -0.354620 -0.219360 0.908915
-0.078029 0.141290 -0.004917 0.549807 -0.189298 0.813559
-0.072852 0.100773 -0.013345 0.436239 -0.307879 0.845521
-0.073854 0.100736 -0.012836 0.496725 -0.306023 0.812166
-0.022133 0.166772 -0.018311 -0.173588 -0.505877 -0.844959
-0.074831 0.100681 -0.012169 0.549601 -0.301665 0.779061
-0.034688 0.065168 -0.014825 -0.492581 -0.471624 -0.731393
-0.035689 0.065136 -0.014442 -0.318059 -0.429051 -0.845431
-0.036686 0.065131 -0.014439 -0.114994 -0.406751 -0.906273
-0.037684 0.065160 -0.014357 -0.056715 -0.400397 -0.914585
-0.038686 0.065138 -0.014246 -0.013247 -0.407090 -0.913292
-0.039691 0.065140 -0.014233 0.029263 -0.425085 -0.904680
-0.040692 0.065160 -0.014333 0.060214 -0.434458 -0.898677
-0.041694 0.065201 -0.014539 0.069951 -0.450225 -0.890171
-0.042687 0.065155 -0.014621 0.015304 -0.453298 -0.891228
-0.043682 0.065156 -0.014610 -0.056689 -0.439334 -0.896533
-0.044682 0.065121 -0.014518 -0.123209 -0.418380 -0.899877
-0.045682 0.065067 -0.014026 -0.221391 -0.385837 -0.895609
-0.046679 0.065053 -0.013892 0.309976 0.366111 0.877427
-0.047703 0.064997 -0.013563 0.365489 0.338240 0.867186
-0.048660 0.064989 -0.013105 0.414690 0.330097 0.847979
-0.049668 0.064903 -0.012231 0.462027 0.331629 0.822528
-0.050648 0.064845 -0.011443 0.496908 0.327824 0.803501
-0.051658 0.064781 -0.010824 0.488373 0.366222 0.792069
-0.052665 0.064720 -0.010200 0.462341 0.416480 0.782806
-0.053620 0.064702 -0.009635 0.464823 0.457259 0.758191
-0.054522 0.064576 -0.008972 -0.448797 -0.524884 -0.723241
-0.055673 0.064525 -0.008182 -0.395065 -0.586368 -0.707175
-0.056662 0.064534 -0.008031 -0.307293 -0.650093 -0.694946
-0.057661 0.064539 -0.007887 -0.235919 -0.682868 -0.691399
-0.058653 0.064539 -0.007613 -0.200186 -0.725485 -0.658481
-0.059639 0.064556 -0.007321 -0.198280 -0.728990 -0.655178
-0.060662 0.064422 -0.006884 -0.220082 -0.728540 -0.648686
-0.061668 0.064365 -0.006517 -0.249889 -0.721635 -0.645599
-0.062639 0.064404 -0.006193 -0.289078 -0.706723 -0.645737
-0.063690 0.064322 -0.005642 -0.326790 -0.691465 -0.644270
-0.064652 0.064255 -0.005033 -0.389638 -0.682215 -0.618680
-0.065629 0.064236 -0.004441 -0.445417 -0.666050 -0.598315
-0.066592 0.064199 -0.003751 -0.499952 -0.676734 -0.540443
-0.075882 0.100651 -0.011343 0.600641 -0.279809 0.748957
-0.023204 0.175652 -0.020763 0.511906 0.015537 0.858901
-0.025173 0.175641 -0.019573 0.551787 -0.121887 0.825030
-0.024122 0.165279 -0.017023 -0.114596 -0.518272 -0.847503
-0.026193 0.171192 -0.019019 0.369479 0.154499 0.916305
-0.018256 0.178619 -0.024360 0.616881 0.070555 0.783888
-0.041043 0.154780 -0.008788 -0.185122 -0.512202 -0.838677
-0.075784 0.067570 0.015039 -0.641594 -0.763071 0.077979
-0.058019 0.131103 -0.006589 -0.373562 -0.124862 0.919163
-0.044094 0.156163 -0.008536 -0.330151 -0.346330 -0.878097
-0.013251 0.177151 -0.028057 -0.534301 -0.233177 -0.812497
-0.060954 0.123826 -0.008594 -0.161682 -0.167375 0.972545
-0.058966 0.123797 -0.008095 -0.190450 -0.278822 0.941269
-0.062496 0.060793 0.021913 -0.270150 -0.916335 0.295548
-0.059954 0.123822 -0.008391 -0.197359 -0.214670 0.956539
-0.043088 0.156177 -0.008905 -0.299527 -0.378724 -0.875701
-0.060917 0.109692 -0.016009 0.378704 -0.342536 0.859798
-0.060912 0.067834 0.035500 -0.254088 -0.691722 0.675988
-0.054081 0.071101 0.039444 -0.008701 -0.586282 0.810061
-0.043099 0.157658 -0.009542 -0.362733 -0.299057 -0.882604
-0.044075 0.154693 -0.007872 -0.260200 -0.440699 -0.859116
-0.026566 0.035691 0.052903 0.088441 0.813006 -0.575500
-0.059955 0.061087 0.023957 -0.232461 -0.882448 0.408959
-0.054090 0.153118 -0.002714 0.501494 0.011769 0.865081
-0.026122 0.165258 -0.016652 -0.112429 -0.469034 -0.875995
-0.034128 0.165212 -0.015126 -0.305395 -0.188468 -0.933388
-0.073455 0.075271 0.035225 0.609359 0.460800 -0.645248
-0.057141 0.064258 0.032372 -0.189382 -0.840977 0.506846
-0.080826 0.114785 -0.002826 -0.500254 -0.372888 -0.781474
-0.063920 0.112438 -0.013331 0.451189 -0.423896 0.785328
-0.043156 0.162156 -0.010095 0.537149 0.006896 0.843459
-0.056024 0.144237 -0.001615 -0.247407 -0.112947 0.962306
-0.076000 0.139851 -0.006099 0.389756 -0.045004 0.919818
-0.049883 0.108435 -0.019027 0.061880 -0.284233 0.956756
-0.046882 0.108426 -0.018644 0.011620 -0.386624 0.922164
-0.051889 0.108419 -0.018904 0.119676 -0.222148 0.967640
-0.028846 0.098689 -0.023554 0.218371 -0.166611 0.961538
-0.073846 0.114952 -0.006594 0.474143 0.039391 0.879567
-0.064155 0.162388 -0.058667 0.155413 -0.540771 -0.826688
0.026279 0.067545 -0.023180 -0.606824 0.245734 0.755896
0.025290 0.067589 -0.023823 -0.618469 0.230929 0.751111
0.024291 0.067658 -0.024712 -0.667938 0.185821 0.720645
0.023219 0.067780 -0.026032 -0.671353 0.118422 0.731616
0.022277 0.067842 -0.026985 -0.605116 0.088885 0.791160
0.021283 0.067901 -0.027755 -0.528458 0.082265 0.844964
0.020319 0.067935 -0.028336 -0.423513 0.092111 0.901195
0.019323 0.067961 -0.028740 -0.382696 0.103350 0.918076
0.018307 0.067976 -0.028974 -0.355554 0.106628 0.928554
0.017303 0.068005 -0.029338 -0.361294 0.117038 0.925078
0.016292 0.068040 -0.029815 -0.369324 0.134277 0.919548
0.015275 0.068085 -0.030287 -0.336790 0.166582 0.926727
0.014283 0.068109 -0.030691 -0.252658 0.198712 0.946930
0.013329 0.068123 -0.031034 -0.196528 0.211389 0.957440
0.012312 0.068095 -0.030966 -0.152198 0.215082 0.964663
0.011294 0.068087 -0.030751 -0.163698 0.195903 0.966863
0.010271 0.068115 -0.030905 -0.209825 0.178334 0.961338
0.009256 0.068148 -0.031239 -0.278671 0.163597 0.946350
0.008267 0.068172 -0.031657 -0.324790 0.165595 0.931176
0.007263 0.068211 -0.032153 -0.331532 0.191722 0.923758
0.006273 0.068232 -0.032566 -0.302746 0.197118 0.932464
0.005283 0.068237 -0.032723 -0.263611 0.190048 0.945723
0.004267 0.068260 -0.032922 -0.222543 0.171773 0.959671
0.003269 0.068267 -0.033064 -0.210390 0.137958 0.967834
0.002269 0.068282 -0.033319 -0.227405 0.102976 0.968340
0.001274 0.068300 -0.033588 -0.228871 0.080257 0.970143
0.000275 0.068316 -0.033854 -0.226494 0.085813 0.970225
-0.000730 0.068332 -0.034088 -0.230825 0.108655 0.966910
-0.001728 0.068348 -0.034353 -0.253415 0.137666 0.957512
-0.002730 0.068374 -0.034717 -0.276703 0.163277 0.946983
-0.003735 0.068402 -0.035077 -0.283660 0.184372 0.941033
-0.004738 0.068443 -0.035580 -0.253599 0.198329 0.946759
-0.005736 0.068457 -0.035843 -0.201725 0.202094 0.958366
-0.006733 0.068459 -0.035997 -0.162534 0.202068 0.965790
-0.007738 0.068470 -0.036095 -0.155712 0.215590 0.963989
-0.008735 0.068452 -0.036144 -0.186907 0.229837 0.955113
-0.009723 0.068462 -0.036253 -0.262185 0.244090 0.933638
-0.010744 0.068501 -0.036579 -0.310974 0.237919 0.920157
-0.011738 0.068536 -0.037096 -0.318368 0.246551 0.915344
-0.012718 0.068559 -0.037666 -0.292801 0.235658 0.926678
-0.013723 0.068566 -0.037791 -0.238208 0.212095 0.947772
-0.014732 0.068587 -0.038039 -0.146770 0.179144 0.972813
-0.015742 0.068601 -0.038142 -0.064603 0.151600 0.986328
-0.016744 0.068615 -0.038208 -0.009665 0.158958 0.987238
-0.017747 0.068593 -0.038126 0.055366 0.176969 0.982658
-0.018747 0.068592 -0.038109 0.112146 0.202529 0.972834
-0.019756 0.068553 -0.037898 0.188151 0.243554 0.951462
-0.020751 0.068545 -0.037738 0.265391 0.299498 0.916443
-0.021773 0.068482 -0.037267 0.354709 0.329790 0.874883
-0.022769 0.068439 -0.036738 0.457313 0.356021 0.814932
-0.023752 0.068393 -0.036069 0.518807 0.368028 0.771618
-0.024736 0.068336 -0.035287 0.569201 0.382691 0.727708
-0.025748 0.068250 -0.034408 0.622030 0.401605 0.672155
-0.045101 0.156152 -0.008160 -0.352949 -0.329749 -0.875610
-0.063018 0.135513 -0.007451 -0.250602 -0.113796 0.961379
-0.066005 0.138467 -0.007768 -0.139045 -0.028278 0.989882
-0.015884 0.037769 0.051576 -0.326809 0.175071 -0.928733
-0.035123 0.169652 -0.014581 0.531652 -0.169387 0.829852
-0.054897 0.109810 -0.018029 0.200277 -0.290281 0.935749
-0.031292 0.036277 0.051314 0.530761 0.549691 -0.645084
-0.023153 0.035211 0.052318 0.031673 -0.883482 0.467394
-0.034701 0.066636 -0.015333 0.526759 0.427697 0.734574
-0.035694 0.066633 -0.015331 -0.357837 -0.428884 -0.829465
-0.036693 0.066593 -0.014948 -0.226224 -0.407907 -0.884553
-0.037694 0.066591 -0.014946 -0.073149 -0.389121 -0.918278
-0.038698 0.066603 -0.014748 0.005480 -0.395268 -0.918549
-0.039701 0.066614 -0.014874 0.057411 -0.414353 -0.908304
-0.040701 0.066639 -0.015112 0.088843 -0.432098 -0.897440
-0.041703 0.066666 -0.015345 0.086671 -0.454677 -0.886429
-0.042694 0.066630 -0.015409 0.033626 -0.457007 -0.888827
-0.043684 0.066642 -0.015370 -0.068372 -0.455570 -0.887570
-0.044694 0.066598 -0.015303 -0.167140 -0.431264 -0.886609
-0.045691 0.066568 -0.015052 -0.267768 -0.388480 -0.881694
-0.046697 0.066528 -0.014682 0.333717 0.351488 0.874694
-0.047704 0.066478 -0.014183 0.385174 0.344354 0.856190
-0.048684 0.066444 -0.013642 0.416339 0.356149 0.836552
-0.049655 0.066417 -0.013081 0.422855 0.394153 0.815988
-0.050634 0.066385 -0.012411 0.403446 0.455519 0.793558
-0.051638 0.066327 -0.011785 -0.364547 -0.525224 -0.768925
-0.052692 0.066214 -0.011241 -0.336416 -0.546275 -0.767077
-0.053695 0.066160 -0.010738 -0.308937 -0.604717 -0.734082
-0.054694 0.066124 -0.010356 -0.300197 -0.670788 -0.678178
-0.055676 0.066141 -0.010195 -0.264409 -0.709287 -0.653452
-0.056672 0.066136 -0.009927 -0.220165 -0.735104 -0.641209
-0.057683 0.066048 -0.009447 -0.170107 -0.765504 -0.620538
-0.058689 0.065984 -0.009086 -0.161301 -0.772441 -0.614261
-0.059686 0.065976 -0.008951 -0.180952 -0.775665 -0.604649
-0.060693 0.065926 -0.008585 -0.216900 -0.767462 -0.603288
-0.061684 0.065930 -0.008303 -0.262339 -0.754545 -0.601532
-0.062699 0.065846 -0.007823 -0.303603 -0.735387 -0.605831
-0.063680 0.065848 -0.007277 -0.353747 -0.714052 -0.604146
-0.064618 0.065925 -0.006821 -0.381434 -0.687399 -0.618054
-0.065643 0.065762 -0.005819 -0.434591 -0.646863 -0.626657
-0.066656 0.065652 -0.004895 -0.497836 -0.620864 -0.605547
-0.067649 0.065582 -0.004078 -0.539202 -0.623082 -0.566596
-0.082850 0.117685 -0.002716 0.502649 0.332470 0.798002
-0.027165 0.175630 -0.018169 0.563855 -0.183884 0.805142
0.012128 0.110130 -0.018785 -0.297980 -0.201034 0.933163
-0.031172 0.171175 -0.016430 0.475781 -0.123856 0.870800
-0.066264 0.175335 -0.059859 0.629982 0.112729 0.768385
-0.037886 0.109925 -0.019155 0.055727 -0.417477 0.906977
-0.072706 0.070456 0.030746 0.530893 0.707260 -0.466836
-0.039051 0.154795 -0.009057 -0.091667 -0.600300 -0.794504
-0.052008 0.145723 -0.001168 0.161623 -0.472357 -0.866462
-0.031050 0.155166 -0.008368 0.209671 -0.831257 -0.514830
-0.015252 0.177145 -0.026520 -0.597855 -0.216508 -0.771812
-0.070028 0.075334 0.037671 0.400680 0.466343 -0.788657
-0.057038 0.142741 -0.002385 -0.346450 -0.313088 0.884278
-0.031181 0.165241 -0.015846 -0.207589 -0.309756 -0.927878
-0.058068 0.132534 -0.006388 -0.394746 -0.167328 0.903425
-0.081387 0.111450 0.044672 -0.217258 -0.807028 0.549094
-0.081974 0.130956 -0.003940 0.482749 -0.305324 0.820811
-0.080973 0.130966 -0.004340 0.453456 -0.265714 0.850749
-0.012199 0.177175 -0.028881 0.354165 0.156890 0.921929
-0.025141 0.168241 -0.018436 -0.237113 -0.375173 -0.896115
-0.058999 0.129653 -0.006987 0.343318 0.102373 -0.933623
-0.013224 0.172718 -0.026010 -0.495331 -0.463329 -0.734829
-0.066098 0.156586 -0.053473 0.138012 -0.763346 -0.631074
-0.055080 0.153114 -0.002158 0.508033 -0.048682 0.859961
-0.018122 0.165314 -0.018178 -0.175542 -0.620191 -0.764558
-0.035135 0.165203 -0.014763 0.367491 0.128054 0.921169
-0.037224 0.169679 -0.013065 0.564437 -0.225060 0.794203
-0.038213 0.169665 -0.012413 0.570886 -0.251990 0.781403
-0.058029 0.129633 -0.006656 -0.350711 -0.113576 0.929571
-0.066961 0.129698 -0.008996 -0.059980 -0.076396 0.995272
-0.062897 0.106793 -0.016216 0.447025 -0.380014 0.809788
-0.065902 0.112354 -0.012152 0.456179 -0.391816 0.798987
-0.061017 0.135506 -0.006869 -0.293998 -0.136746 0.945973
-0.071871 0.116473 -0.007764 0.283557 0.055703 0.957336
-0.048883 0.108449 -0.019052 -0.029473 -0.346689 0.937517
-0.047885 0.108472 -0.018866 -0.076538 -0.385580 0.919495
-0.053903 0.111250 -0.017661 0.152370 -0.404561 0.901728
-0.063255 0.171035 -0.061451 0.125142 0.127007 0.983976
-0.072922 0.126742 -0.008668 0.180822 0.048600 0.982314
0.027283 0.068940 -0.022937 -0.609892 0.244462 0.753837
0.026286 0.068977 -0.023439 -0.573168 0.230902 0.786233
0.025235 0.069060 -0.024272 -0.611344 0.195538 0.766827
0.024283 0.069115 -0.025224 -0.641167 0.152006 0.752196
0.023272 0.069186 -0.026099 -0.645143 0.080858 0.759771
0.022261 0.069255 -0.026972 -0.591527 0.020029 0.806036
0.021276 0.069314 -0.027761 -0.516613 -0.007689 0.856185
0.020283 0.069362 -0.028408 -0.447393 0.000531 0.894338
0.019297 0.069391 -0.028822 -0.408043 0.021246 0.912716
0.018273 0.069417 -0.029154 -0.384404 0.040645 0.922270
0.017273 0.069442 -0.029536 -0.392690 0.060821 0.917658
0.016276 0.069479 -0.030050 -0.401788 0.077332 0.912462
0.015266 0.069527 -0.030663 -0.372846 0.101559 0.922319
0.014280 0.069554 -0.031088 -0.308056 0.126955 0.942859
0.013286 0.069571 -0.031356 -0.223013 0.170670 0.959759
0.012255 0.069589 -0.031511 -0.173632 0.193009 0.965712
0.011262 0.069597 -0.031520 -0.174010 0.230957 0.957277
0.010271 0.069571 -0.031581 -0.230100 0.269239 0.935182
0.009254 0.069619 -0.031889 -0.288917 0.289712 0.912466
0.008267 0.069622 -0.032185 -0.319258 0.293957 0.900924
0.007266 0.069657 -0.032699 -0.304506 0.311781 0.900038
0.006261 0.069698 -0.033190 -0.261212 0.314514 0.912606
0.005253 0.069736 -0.033536 -0.205024 0.308376 0.928908
0.004266 0.069714 -0.033593 -0.164883 0.296712 0.940625
0.003255 0.069732 -0.033662 -0.155926 0.287023 0.945148
0.002257 0.069724 -0.033682 -0.164201 0.275562 0.947155
0.001266 0.069732 -0.033979 -0.189965 0.261058 0.946447
0.000268 0.069748 -0.034239 -0.215487 0.246263 0.944945
-0.000727 0.069749 -0.034387 -0.238779 0.237427 0.941601
-0.001739 0.069788 -0.034702 -0.255602 0.224842 0.940273
-0.002762 0.069824 -0.035174 -0.272798 0.210605 0.938737
-0.003741 0.069852 -0.035599 -0.272859 0.189515 0.943203
-0.004733 0.069866 -0.035887 -0.246214 0.171198 0.953976
-0.005739 0.069884 -0.036110 -0.203906 0.163508 0.965240
-0.006728 0.069868 -0.036167 -0.180918 0.187955 0.965371
-0.007745 0.069898 -0.036343 -0.190467 0.228134 0.954818
-0.008741 0.069902 -0.036484 -0.241034 0.258539 0.935446
-0.009716 0.069888 -0.036675 -0.270590 0.260827 0.926688
-0.010735 0.069942 -0.037127 -0.306572 0.256289 0.916695
-0.011742 0.070003 -0.037879 -0.286105 0.235250 0.928871
-0.012739 0.070001 -0.038039 -0.251895 0.209744 0.944752
-0.013730 0.069999 -0.038050 -0.184009 0.198658 0.962640
-0.014744 0.070021 -0.038257 -0.095829 0.176884 0.979555
-0.015751 0.070024 -0.038407 -0.050114 0.161131 0.985660
-0.016750 0.070002 -0.038308 -0.016100 0.153740 0.987980
-0.017748 0.070003 -0.038279 0.025306 0.168831 0.985320
-0.018768 0.069986 -0.038199 0.073294 0.191048 0.978840
-0.019754 0.070001 -0.038256 0.137447 0.227194 0.964101
-0.020758 0.069984 -0.038138 0.217094 0.253008 0.942792
-0.021765 0.069955 -0.037882 0.304212 0.289745 0.907471
-0.022768 0.069906 -0.037370 0.421299 0.312853 0.851252
-0.023793 0.069826 -0.036634 0.501169 0.332405 0.798960
-0.024745 0.069806 -0.036053 0.547679 0.339595 0.764672
-0.025753 0.069725 -0.035172 0.599420 0.358517 0.715654
-0.081874 0.119187 -0.003824 0.455427 0.273134 0.847339
-0.062029 0.135502 -0.007174 -0.268985 -0.126396 0.954815
-0.066993 0.138471 -0.007908 -0.068923 -0.061098 0.995749
-0.079914 0.109193 0.034328 -0.507391 -0.854699 0.109744
-0.036191 0.169669 -0.013788 0.552425 -0.187130 0.812286
-0.065216 0.162420 -0.058520 -0.239099 -0.435711 -0.867748
-0.070745 0.113137 0.049314 0.197928 -0.817139 0.541394
-0.068884 0.117973 -0.008511 0.155816 0.007492 0.987758
-0.034708 0.068181 -0.016856 0.608027 0.399670 0.685979
-0.035704 0.068112 -0.016092 -0.439940 -0.433675 -0.786371
-0.036700 0.068080 -0.015712 -0.242387 -0.434437 -0.867475
-0.037699 0.068051 -0.015454 -0.082070 -0.420278 -0.903676
-0.038709 0.068094 -0.015502 0.012406 -0.406502 -0.913566
-0.039706 0.068071 -0.015540 0.086001 -0.423277 -0.901909
-0.040716 0.068127 -0.015865 0.118678 -0.431443 -0.894300
-0.041708 0.068116 -0.016025 0.090345 -0.447892 -0.889511
-0.042702 0.068121 -0.016150 0.007366 -0.444187 -0.895904
-0.043699 0.068087 -0.016062 -0.098418 -0.421727 -0.901366
-0.044695 0.068071 -0.015931 -0.222522 -0.371137 -0.901522
-0.045682 0.068058 -0.015641 0.313496 0.347981 0.883533
-0.046682 0.068005 -0.015145 0.353906 0.321086 0.878438
-0.047690 0.067956 -0.014648 0.368761 0.309656 0.876429
-0.048697 0.067904 -0.014157 0.353649 0.337367 0.872419
-0.049676 0.067879 -0.013597 0.322309 0.405413 0.855428
-0.050684 0.067837 -0.013239 -0.268196 -0.495488 -0.826173
-0.051689 0.067807 -0.012996 -0.196925 -0.568604 -0.798693
-0.052674 0.067853 -0.012935 -0.147544 -0.635366 -0.757985
-0.053682 0.067846 -0.012947 -0.110798 -0.703565 -0.701940
-0.054684 0.067848 -0.012812 -0.108706 -0.731561 -0.673054
-0.055688 0.067760 -0.012341 -0.110395 -0.762018 -0.638076
-0.056688 0.067746 -0.012083 -0.098104 -0.808486 -0.580281
-0.057687 0.067720 -0.011833 -0.109384 -0.817456 -0.565509
-0.058692 0.067729 -0.011827 -0.129751 -0.814938 -0.564837
-0.059705 0.067547 -0.011132 -0.168485 -0.817105 -0.551318
-0.060677 0.067667 -0.011312 -0.216708 -0.798299 -0.561922
-0.061683 0.067635 -0.010936 -0.265030 -0.787519 -0.556393
-0.062659 0.067621 -0.010397 -0.314239 -0.772118 -0.552347
-0.063642 0.067527 -0.009244 -0.364274 -0.743547 -0.560752
-0.064626 0.067476 -0.008467 -0.416839 -0.723305 -0.550522
-0.065678 0.067321 -0.007507 -0.455462 -0.682603 -0.571496
-0.066661 0.067226 -0.006480 -0.492764 -0.648250 -0.580479
-0.067588 0.067240 -0.005766 -0.514626 -0.631296 -0.580195
0.002102 0.111597 -0.020259 0.039240 -0.156989 0.986820
-0.039887 0.108509 -0.019559 0.063039 -0.344601 0.936630
-0.063962 0.126764 -0.008712 -0.121663 -0.061362 0.990673
-0.037172 0.165191 -0.013673 0.453868 0.029664 0.890575
-0.067238 0.175347 -0.058870 0.705360 0.197920 0.680657
-0.057893 0.109749 -0.017234 0.302132 -0.313445 0.900260
-0.068915 0.108019 -0.012312 0.422345 -0.359924 0.831913
-0.065030 0.138462 -0.007700 -0.189117 -0.064314 0.979846
-0.066208 0.072370 0.037485 0.331997 0.574839 -0.747889
-0.069114 0.076385 0.038708 0.382343 0.458877 -0.802026
-0.053009 0.145722 -0.001150 0.105213 -0.345353 -0.932556
-0.069914 0.125300 -0.008831 0.054930 0.052572 0.997105
-0.074990 0.139866 -0.006476 0.339303 -0.010721 0.940616
-0.032162 0.172645 -0.015639 0.511835 -0.229282 0.827922
-0.033147 0.172636 -0.014985 0.544651 -0.257628 0.798113
-0.063902 0.106750 -0.015460 0.489298 -0.376891 0.786474
-0.064880 0.106687 -0.014665 0.477287 -0.377994 0.793295
-0.065908 0.106679 -0.014209 0.446524 -0.376826 0.811553
-0.066881 0.106639 -0.013906 0.418245 -0.370803 0.829202
-0.067905 0.106631 -0.013438 0.406404 -0.366437 0.836995
-0.068909 0.106601 -0.012938 0.416578 -0.366734 0.831847
-0.069911 0.106570 -0.012429 0.430115 -0.363701 0.826270
-0.070906 0.106531 -0.011907 0.442775 -0.359421 0.821442
-0.059038 0.132561 -0.006807 -0.363475 -0.147168 0.919906
-0.066909 0.108072 -0.013317 0.413027 -0.352492 0.839737
-0.034145 0.166698 -0.015274 0.369580 0.084752 0.925326
-0.019122 0.165312 -0.017918 -0.155871 -0.617841 -0.770698
-0.027126 0.165248 -0.016532 -0.127312 -0.435733 -0.891027
-0.077769 0.068960 0.015142 -0.595430 -0.799486 0.079283
-0.065922 0.108105 -0.013714 0.440743 -0.338112 0.831520
-0.054007 0.144242 -0.000990 0.293614 -0.091590 -0.951526
-0.076969 0.136896 -0.005650 0.425105 -0.067968 0.902588
-0.071875 0.106480 -0.011476 0.451661 -0.362662 0.815155
-0.084006 0.130916 -0.002612 0.600401 -0.322928 0.731598
-0.054897 0.112625 -0.016730 0.173168 -0.464598 0.868425
-0.067897 0.110866 -0.011638 0.439953 -0.350848 0.826648
-0.050881 0.108424 -0.019010 0.069224 -0.238009 0.968793
-0.056916 0.112617 -0.016268 0.250457 -0.456670 0.853653
-0.065949 0.126772 -0.008851 -0.067075 -0.012075 0.997675
-0.069924 0.107994 -0.011815 0.429870 -0.358095 0.828842
-0.046099 0.157633 -0.008262 -0.443247 -0.180798 -0.877977
0.027275 0.070388 -0.023319 -0.597855 0.184749 0.780024
0.026297 0.070421 -0.023855 -0.571060 0.175416 0.801947
