ply
format ascii 1.0
comment PCL generated
element vertex 1256
property float x
property float y
property float z
element camera 0
property float view_px
property float view_py
property float view_pz
property float x_axisx
property float x_axisy
property float x_axisz
property float y_axisx
property float y_axisy
property float y_axisz
property float z_axisx
property float z_axisy
property float z_axisz
property float focal
property float scalex
property float scaley
property float centerx
property float centery
property int viewportx
property int viewporty
property float k1
property float k2
end_header
-0.01087646 0.039019611 -0.012055533
-0.01000837 0.039020818 -0.011442902
-0.0088757314 0.039142355 -0.011284278
-0.0082620448 0.038841709 -0.010987092
-0.0066084401 0.039038919 -0.010478714
-0.0060291998 0.039167322 -0.010807467
-0.0046036416 0.038913529 -0.010323093
-0.0038857111 0.038970489 -0.010371538
-0.0029663986 0.039026044 -0.0098300036
-0.0015989349 0.039110318 -0.0099642118
-0.00082023675 0.039304756 -0.0096336491
0.00026064125 0.039123852 -0.0095314318
0.0013623686 0.039398011 -0.0094551742
0.0024735879 0.039445579 -0.0091151427
0.0032547677 0.039026756 -0.0087676505
0.0044665625 0.038875315 -0.0085790791
0.0051177787 0.039074395 -0.0083725648
0.0062402845 0.038772326 -0.0079154111
0.0067570088 0.03808786 -0.0071391468
0.0070017856 0.036532372 -0.0055150776
0.0073405663 0.035067543 -0.0043128356
0.0079424717 0.034466501 -0.0037287516
0.0089636613 0.034156598 -0.0035980172
0.009789817 0.034229487 -0.0030781836
0.010950072 0.03456388 -0.002859337
0.011939471 0.033906236 -0.0026990667
0.01318872 0.034198809 -0.0024504133
0.013914574 0.033970624 -0.0025788883
0.015062899 0.034535073 -0.0020189825
0.01631291 0.034654245 -0.0017865472
0.017102066 0.034721404 -0.0019338197
0.018174144 0.034821428 -0.0021349003
0.019547885 0.0348504 -0.0017773352
0.020026548 0.034735095 -0.0014468359
0.021637494 0.035008546 -0.0011158106
-0.052078705 0.034223605 -0.013150507
-0.051237665 0.033948123 -0.013184924
-0.050020922 0.033803627 -0.012665038
-0.048969656 0.033633593 -0.012369987
-0.048138626 0.033373419 -0.012116916
-0.047220517 0.033439562 -0.011765976
-0.046109147 0.033243328 -0.011886041
-0.044825286 0.033708479 -0.011745159
-0.044155385 0.033557013 -0.011389757
-0.042913403 0.033605117 -0.011493688
-0.042213596 0.033876281 -0.01123865
-0.040697198 0.034124169 -0.011462586
-0.039289154 0.035250742 -0.011990322
-0.037577655 0.03681599 -0.012834569
-0.035449225 0.038101554 -0.013719929
-0.034309566 0.038205422 -0.013917671
-0.033231888 0.038658615 -0.013691758
-0.03199321 0.03852763 -0.013458978
-0.031206815 0.038539194 -0.013403525
-0.030327287 0.03869151 -0.013272814
-0.029211551 0.038465571 -0.012987756
-0.028146414 0.03856273 -0.012855754
-0.026683321 0.038617816 -0.012527036
-0.026124429 0.038737483 -0.012655223
-0.025038715 0.038299054 -0.012290118
-0.023992894 0.038936503 -0.012160528
-0.022998977 0.0389238 -0.012062524
-0.021862047 0.038525045 -0.011655834
-0.020913828 0.038812395 -0.011555691
-0.020036131 0.038752779 -0.011077954
-0.018862089 0.038724847 -0.01094401
-0.017907815 0.038585152 -0.010677802
-0.017057177 0.038888343 -0.010739479
-0.015606726 0.038963515 -0.010479115
-0.014604319 0.038996935 -0.010128021
-0.01395012 0.038922835 -0.010327611
-0.012876751 0.038876124 -0.0099035278
-0.011522211 0.039141852 -0.0097915074
-0.01065306 0.038584031 -0.0096679172
-0.0098194964 0.038954768 -0.0095736021
-0.0085042976 0.039092761 -0.0091544818
-0.0076957461 0.03938004 -0.0090791788
-0.0066165724 0.038851853 -0.0087370686
-0.0052500428 0.039011497 -0.0086527672
-0.0046541723 0.038995177 -0.0081300577
-0.0036836539 0.03906827 -0.0084979152
-0.0025318791 0.03914208 -0.0082455473
-0.0011966423 0.039127819 -0.007918925
-0.00037286745 0.039307136 -0.0077752559
0.00075523142 0.039539091 -0.0079363547
0.0019180569 0.039328672 -0.007466658
0.0028282222 0.039185874 -0.0073165214
0.0038009088 0.039191481 -0.0068880706
0.004602388 0.039143242 -0.0067667663
0.005413102 0.038408134 -0.0061017266
0.0055419873 0.037038211 -0.0049612569
0.0059583192 0.03570044 -0.0033516218
0.0065078717 0.034739185 -0.0024097678
0.0070820339 0.034567263 -0.0019372649
0.0082242582 0.034395289 -0.0015478029
0.0093449652 0.034140386 -0.0013193332
0.010039484 0.033871558 -0.0010665101
0.011346119 0.034152564 -0.00075320288
0.012042637 0.034092486 -0.00053783203
0.013085254 0.034301888 -0.00031646044
0.014367565 0.034121811 -0.00051079749
0.015146173 0.034342628 -0.0001348808
0.01624259 0.034101747 -0.00010545024
0.01728596 0.034474127 8.1659964e-005
0.018591424 0.034483608 0.00031413656
0.019828461 0.034930237 0.00030117799
0.020774212 0.035084601 0.00016584017
0.021683583 0.034832451 0.00075951853
0.02282059 0.034814499 0.00068620912
0.024273878 0.035838887 0.00046601862
0.025534838 0.03633346 8.3867526e-005
0.026892353 0.036525432 -4.00262e-005
0.027926121 0.036719125 -0.00016580999
0.028981792 0.03693939 0.00019446334
0.030230619 0.03719987 1.1483168e-005
0.031456877 0.038058102 9.2623028e-005
0.032491423 0.038044181 -7.6232631e-005
0.033952869 0.038229585 8.096025e-005
0.035089158 0.038582087 -0.00013610077
0.035939503 0.03914354 -0.00016311646
-0.054707378 0.033570576 -0.011842706
-0.054010883 0.033802491 -0.011832727
-0.052791983 0.033747558 -0.011337403
-0.051694788 0.033347797 -0.011296982
-0.050950486 0.033429682 -0.010682779
-0.050152637 0.033524677 -0.010607023
-0.049083456 0.033488307 -0.010390474
-0.048041176 0.033711448 -0.01008482
-0.046857171 0.033446498 -0.010076426
-0.045696717 0.03352816 -0.0099345576
-0.04475252 0.033552043 -0.009858829
-0.043590698 0.033743843 -0.0097080655
-0.042631421 0.033881538 -0.0093968771
-0.041552301 0.034096871 -0.0094853006
-0.039746445 0.035118744 -0.0099708391
-0.038166463 0.03681827 -0.011210855
-0.035933815 0.038487449 -0.012106087
-0.035183549 0.038126599 -0.012158598
-0.033970185 0.038391806 -0.012048364
-0.032925125 0.038512722 -0.011813976
-0.031973079 0.038791608 -0.011635554
-0.030879335 0.038507339 -0.011628238
-0.030073708 0.038437672 -0.010812788
-0.028873328 0.0386886 -0.010982481
-0.027683908 0.038575675 -0.011032241
-0.026856244 0.03854607 -0.010813938
-0.025747614 0.038415849 -0.010299612
-0.024578987 0.038222019 -0.01016116
-0.023733372 0.038446512 -0.0096008359
-0.0226773 0.039055444 -0.0099973278
-0.022047568 0.038484316 -0.0098044937
-0.020616177 0.038540371 -0.0091776811
-0.019727049 0.0386285 -0.0093730045
-0.018667817 0.039057959 -0.0093852235
-0.017357286 0.038673162 -0.0088111255
-0.016189517 0.038741574 -0.0090651698
-0.015224685 0.038821641 -0.0081705023
-0.014444704 0.038837388 -0.0083093718
-0.013558988 0.038907077 -0.0083396286
-0.012385086 0.038820934 -0.0080128675
-0.011308508 0.038815968 -0.0076119248
-0.010328137 0.038752731 -0.0074505331
-0.0094736358 0.038910698 -0.0073823538
-0.0084599163 0.038715195 -0.0073750685
-0.0074680876 0.038992371 -0.006867778
-0.006088038 0.038838867 -0.0068292492
-0.0051605874 0.038846344 -0.0065847323
-0.0040553058 0.039215665 -0.0065314253
-0.0031505818 0.038884398 -0.0063677379
-0.00202834 0.03922943 -0.0063034249
-0.0010528676 0.039195389 -0.0057222806
0.00018656052 0.039171841 -0.0059791002
0.0010068417 0.039032217 -0.0055788946
0.0017844876 0.039120015 -0.005600817
0.0029372578 0.038893327 -0.0051385355
0.003908121 0.03903069 -0.0045506875
0.0041958722 0.037816387 -0.0036420072
0.0046810089 0.036639754 -0.0025601077
0.0048420401 0.034982797 -0.0010203907
0.0054831151 0.034587372 -0.00063424336
0.0064518987 0.034357395 0.00021916315
0.0072759772 0.033872183 5.1825249e-005
0.0083201034 0.034182999 0.000530469
0.0094727157 0.033990648 0.00052175875
0.010602714 0.033856459 0.00099950691
0.011493068 0.03388055 0.0011201714
0.012333421 0.034358703 0.0012692165
0.01342407 0.03400005 0.0013974002
0.014533969 0.034102544 0.0017292221
0.015591468 0.034129109 0.0017372114
0.016569538 0.034398958 0.0017725534
0.01769598 0.034894098 0.0023955384
0.018858014 0.034214728 0.0023894857
0.019903043 0.034502439 0.0025626505
0.020788267 0.034422155 0.0029097456
0.021982899 0.034783557 0.0021792713
0.023013776 0.034622416 0.0027434116
0.023875309 0.034697231 0.002912808
0.025278354 0.034748994 0.0034099554
0.026776813 0.035165332 0.0028873235
0.027406495 0.035302863 0.0031215984
0.028710524 0.035930697 0.0027972285
0.02980396 0.036311049 0.0028758692
0.031074878 0.036297418 0.0028735311
0.032058753 0.036515385 0.0029470921
0.033609364 0.037434399 0.0024727918
0.034893744 0.037952732 0.0025780015
0.036162935 0.0380629 0.0024814592
0.037050027 0.038646847 0.0020870236
0.038294509 0.039117582 0.0022353355
-0.07119716 0.06703832 0.025478197
-0.073539451 0.14835161 -0.025842262
-0.058805 0.033673815 -0.01083797
-0.057610221 0.033540517 -0.010410344
-0.056800991 0.033698842 -0.010312306
-0.05553041 0.033902381 -0.0099905431
-0.054740936 0.033756193 -0.0099257771
-0.053671651 0.033503398 -0.0095029101
-0.05271484 0.033470176 -0.0089312065
-0.051864035 0.033505123 -0.0095886961
-0.050787602 0.033230055 -0.0090006217
-0.049352419 0.033697013 -0.0087159043
-0.048489887 0.033726726 -0.0085844565
-0.047837786 0.033608578 -0.0082802381
-0.046566915 0.033608116 -0.0081430981
-0.045606732 0.033686906 -0.0078722388
-0.044294227 0.03362453 -0.0079959435
-0.043289974 0.033634946 -0.0078263842
-0.042209998 0.033821534 -0.0076880446
-0.040772684 0.034572899 -0.007822467
-0.038550485 0.036718521 -0.0095813619
-0.036930665 0.038408052 -0.010516249
-0.035644874 0.038490377 -0.010598017
-0.034734812 0.03826455 -0.010244319
-0.033491172 0.038553577 -0.010169754
-0.032443631 0.038344458 -0.0097862892
-0.031384967 0.038497172 -0.0097157527
-0.030669484 0.038329408 -0.0093517024
-0.029687155 0.038437281 -0.0093754614
-0.028375914 0.038390737 -0.0088606225
-0.027432095 0.038341623 -0.008748306
-0.02649295 0.038422439 -0.0083334539
-0.025700288 0.038336087 -0.0083336225
-0.024590079 0.038555525 -0.0081019504
-0.023318043 0.038522605 -0.0079515576
-0.022839848 0.038662568 -0.0076391106
-0.021457078 0.038409043 -0.0075790961
-0.020036869 0.038425341 -0.0076174047
-0.019312667 0.038589247 -0.0071713766
-0.018159291 0.038715437 -0.0072360197
-0.017339537 0.038519051 -0.0070465761
-0.016203675 0.038655899 -0.006999121
-0.015091839 0.038662776 -0.006779464
-0.014128999 0.038871352 -0.006320308
-0.013204155 0.038815722 -0.006160642
-0.011844302 0.038876545 -0.0059395577
-0.010949455 0.038851041 -0.0059285155
-0.0098010404 0.038697146 -0.0059477226
-0.0091525558 0.0388081 -0.0053541423
-0.0079434542 0.038967129 -0.0054177567
-0.0066686799 0.038858671 -0.0051567652
-0.0060708458 0.039036993 -0.0047953525
-0.0051690391 0.03886323 -0.0046528466
-0.0040144422 0.03913179 -0.0047614174
-0.0027665624 0.038858309 -0.0043335496
-0.0017480802 0.038937211 -0.0043698992
-0.00074389024 0.039228089 -0.0040473165
0.00022137843 0.039259247 -0.0040360522
0.0011089555 0.038948782 -0.0037635947
0.0019840458 0.03890216 -0.0032655664
0.003153387 0.038379997 -0.0027258554
0.0034874645 0.037563883 -0.0015269782
0.0034721864 0.035597231 0.00012339985
0.0040598223 0.034753002 0.00089071726
0.0047615231 0.034223702 0.0012970723
0.0055713844 0.034221865 0.0019288905
0.006736516 0.034076303 0.0019682827
0.0074915178 0.03403347 0.0022282919
0.0088877417 0.034285255 0.0023955002
0.0098522352 0.034150526 0.0021704787
0.011263294 0.034625232 0.0025166909
0.011946925 0.034709185 0.0024992018
0.013131617 0.034633417 0.003000255
0.014307362 0.034775559 0.002903692
0.015318479 0.035231449 0.002688596
0.016308855 0.035447437 0.00263691
0.017491611 0.035345048 0.0033410189
0.018577762 0.035025146 0.0035514315
0.019375682 0.03446221 0.0039583393
0.020308265 0.034596447 0.0043843659
0.021088716 0.034339901 0.0047603282
0.02225228 0.034558762 0.004891695
0.023304 0.034087449 0.0050868262
0.024110705 0.03479477 0.00511536
0.025282301 0.034771476 0.0052999328
0.026504902 0.03491205 0.0052899271
0.027489062 0.034776017 0.0054650577
0.02874634 0.035438105 0.0052437689
0.029775867 0.035348643 0.0056715868
0.03108334 0.035584047 0.0057783071
0.032369871 0.036162715 0.0053178961
0.033459779 0.036545154 0.0051678787
0.03469488 0.036797173 0.0052072098
0.035923447 0.037368827 0.0051035499
0.037499137 0.037877046 0.0047547887
0.0386701 0.038707465 0.0041511413
0.039870664 0.03884187 0.0042818817
-0.07033921 0.066660486 0.025890332
-0.074965879 0.1126464 0.048787605
-0.062304631 0.033855237 -0.0095474571
-0.061319306 0.033402208 -0.0089694764
-0.060499042 0.033383235 -0.0089218151
-0.059159834 0.03392769 -0.0090197036
-0.058670726 0.033384837 -0.0085147815
-0.05744081 0.033147722 -0.0083567174
-0.056362469 0.033330005 -0.0082593756
-0.055333983 0.033439025 -0.0079303188
-0.054433681 0.033184972 -0.0076674633
-0.053507779 0.033292748 -0.0074810786
-0.052071363 0.033511862 -0.00751604
-0.051319748 0.033474151 -0.0071642315
-0.050355289 0.033467084 -0.007092875
-0.049336683 0.033458054 -0.0069173044
-0.048145089 0.033492446 -0.006805954
-0.04708983 0.033469304 -0.0065375105
-0.045996472 0.033533361 -0.0061664204
-0.045409765 0.033315867 -0.0057521239
-0.043974098 0.033529308 -0.0059518395
-0.042735975 0.033642277 -0.0062648719
-0.041916478 0.03370712 -0.0060395943
-0.039675038 0.036435083 -0.0072571789
-0.037291691 0.038541533 -0.0088699432
-0.036496773 0.038475286 -0.0086130109
-0.035180844 0.038283881 -0.0085664075
-0.034134742 0.038550735 -0.0083235744
-0.033447005 0.038634416 -0.0083693154
-0.032377895 0.038464051 -0.0081313243
-0.031283457 0.038186446 -0.0073483447
-0.030436806 0.038190998 -0.0075661442
-0.029005906 0.03842447 -0.0071451962
-0.028331008 0.038342074 -0.0071005225
-0.027176281 0.03816063 -0.0069861584
-0.026444998 0.038407866 -0.0069537163
-0.0252904 0.038213741 -0.0063177263
-0.024156069 0.038511764 -0.006386925
-0.023323735 0.038588304 -0.0060506524
-0.022191368 0.038475294 -0.00579968
-0.021450203 0.038429677 -0.0059691542
-0.020184364 0.038492449 -0.005437843
-0.019015979 0.038408458 -0.005562834
-0.01779951 0.03863994 -0.0053104064
-0.017138623 0.038630415 -0.005015376
-0.015622207 0.038994484 -0.0049297609
-0.0150755 0.038541663 -0.0046529369
-0.014094533 0.038665216 -0.0045881197
-0.012907796 0.038867697 -0.0042718211
-0.011640066 0.038739447 -0.003968236
-0.010690187 0.038849846 -0.0042158831
-0.0097776689 0.038906191 -0.0036348221
-0.0087614683 0.03845533 -0.0037434401
-0.0077085351 0.039107416 -0.0033177924
-0.0064875828 0.03873916 -0.00314266
-0.0058392258 0.039056689 -0.0030063868
-0.0046733213 0.038621936 -0.0027003679
-0.0033724015 0.039429054 -0.0027183967
-0.0025870122 0.038756318 -0.0024036316
-0.0016012357 0.0389405 -0.002149103
-0.00052859855 0.038942438 -0.0019689582
0.00049778033 0.038883574 -0.0017922502
0.0012495085 0.03868058 -0.0013362602
0.0016695578 0.037881013 -0.00048234808
0.002452476 0.036447555 0.0008825704
0.0023393068 0.035134729 0.0019457632
0.0030244901 0.034475867 0.0027427678
0.0041965027 0.034223277 0.0034355917
0.0047165807 0.033983406 0.0036012584
0.0060047326 0.034070648 0.0037521052
0.0070178607 0.034225557 0.0037822626
0.0084294379 0.034868333 0.0041067577
0.0097125331 0.03506346 0.0035463278
0.010465519 0.035144705 0.0038215821
0.011698594 0.035165213 0.003819451
0.01285272 0.035665315 0.0037956527
0.013984265 0.035670102 0.0037306156
0.015358308 0.036350012 0.0039406652
0.016391357 0.036134213 0.0040462613
0.017078094 0.035961751 0.0042606755
0.018027244 0.035343595 0.0049895993
0.018917872 0.035215952 0.0054144617
0.019559914 0.035325024 0.0056792041
0.020657688 0.03486206 0.0058923899
0.021938728 0.034556933 0.006219151
0.02247918 0.034484494 0.006609939
0.023479396 0.034607153 0.007232347
0.024700209 0.034939162 0.0072054644
0.025540283 0.034350552 0.0071696443
0.026800478 0.03449754 0.0076139425
0.027787812 0.034883671 0.0073938156
0.029157564 0.034925885 0.0078262566
0.030212706 0.034871273 0.0077657509
0.031209879 0.035314627 0.0077422559
0.032258898 0.035249989 0.0077581028
0.033417255 0.035901129 0.0074880365
0.034919906 0.036293976 0.0073289648
0.036344945 0.036887731 0.0068911421
0.037535865 0.037492044 0.0069868588
0.038693059 0.037652206 0.006853634
0.040053681 0.03860018 0.0064282035
-0.069472231 0.066237256 0.026341328
-0.068900883 0.065769084 0.026595866
-0.079566531 0.10872917 0.032952242
-0.069409519 0.11348865 0.049339011
-0.090828225 0.11510866 0.023521688
-0.058112811 0.064389922 0.03240272
-0.064186692 0.033789836 -0.0079034073
-0.063004225 0.033545833 -0.0079181558
-0.061897494 0.033762708 -0.0078046462
-0.061305404 0.033330619 -0.0075359247
-0.06003176 0.033637524 -0.0068911202
-0.059215762 0.033263415 -0.0069151823
-0.058230963 0.033467051 -0.0067523941
-0.057277486 0.033284958 -0.006436158
-0.056021001 0.033612333 -0.0060979291
-0.055000253 0.033346757 -0.0062700678
-0.054167837 0.033302672 -0.0059684813
-0.053295508 0.033290137 -0.0054719108
-0.052030973 0.033260569 -0.0055336514
-0.050932519 0.033534579 -0.0054709953
-0.049940329 0.03375601 -0.0051399609
-0.048961408 0.033691272 -0.004954773
-0.04811547 0.033349946 -0.0050285161
-0.046908382 0.033402752 -0.0044250935
-0.045712497 0.033764333 -0.0045019519
-0.044758905 0.033806827 -0.0043776897
-0.043678552 0.033653278 -0.0043528355
-0.042639166 0.033768576 -0.0042201504
-0.041512467 0.034209974 -0.0041013877
-0.038430959 0.03858529 -0.0072828555
-0.036970872 0.038006734 -0.0066597546
-0.03628597 0.038389061 -0.0066098748
-0.035192695 0.03849053 -0.0067800623
-0.03409284 0.038397431 -0.0063321376
-0.032901458 0.038713455 -0.0063473233
-0.031785641 0.038456935 -0.0061891773
-0.030811744 0.038349386 -0.005439111
-0.030066852 0.038438983 -0.0054277801
-0.028878346 0.038520534 -0.0052044075
-0.0281647 0.038484357 -0.0049069962
-0.026897958 0.038169436 -0.005162972
-0.025843414 0.038373545 -0.0048247185
-0.024768583 0.038191274 -0.0044845589
-0.02388976 0.038309943 -0.0042626155
-0.02316919 0.038442325 -0.0041296049
-0.021756519 0.03802041 -0.0037365223
-0.020780269 0.038277637 -0.0035822396
-0.019764915 0.038432833 -0.0033778255
-0.01870065 0.038351953 -0.0033513962
-0.017777137 0.03867019 -0.0033987879
-0.01660879 0.038824052 -0.0028910728
-0.015513253 0.038540237 -0.0026574775
-0.014750122 0.038621929 -0.0023418183
-0.013743847 0.038659755 -0.0023491592
-0.012398465 0.038628504 -0.0023333956
-0.011665864 0.038778987 -0.0022191408
-0.01055256 0.038635653 -0.0019428686
-0.0093242005 0.038810022 -0.0016882571
-0.0086536538 0.038843904 -0.0017227695
-0.0074979845 0.038833302 -0.0014124245
-0.0066119754 0.038821943 -0.0011580971
-0.0053930418 0.038914427 -0.001101812
-0.004343031 0.038602356 -0.00080625346
-0.0031532228 0.038919773 -0.00058439368
-0.0021226138 0.039070994 -0.00055188424
-0.0015399307 0.039098643 5.8210164e-005
-0.00016312314 0.038785778 2.6195134e-005
0.00033469463 0.038089387 0.0010021874
0.0010890606 0.037348714 0.0015656716
0.0014501713 0.036027905 0.0031025833
0.0017441444 0.034747701 0.0040301522
0.0026473289 0.034641594 0.0044862623
0.0034623712 0.034152608 0.0047444394
0.0043252073 0.033810165 0.0054163551
0.0058529787 0.034125503 0.00515329
0.006494449 0.034608096 0.0052495808
0.0076563004 0.034794893 0.0052728723
0.0093720928 0.036118504 0.0045115259
0.018678144 0.036162194 0.0062560048
0.019654792 0.036112215 0.0065479688
0.020453576 0.035520662 0.0069699194
0.021606771 0.035305917 0.0075191711
0.022149967 0.035005376 0.0081154713
0.022762988 0.034198817 0.0086386008
0.023829175 0.034348108 0.0087302979
0.024904087 0.034283489 0.0093062092
0.025908643 0.034279421 0.0093166623
0.027262047 0.034838617 0.0092905276
0.02814245 0.03510331 0.0094429571
0.029112017 0.034902219 0.0096501224
0.030345453 0.034851726 0.0097480398
0.031485133 0.035141926 0.0097893942
0.032510966 0.03518879 0.0097471867
0.033875577 0.035886731 0.0096734269
0.034998704 0.036159929 0.00949765
0.036226813 0.037038829 0.0091069099
0.037757061 0.037427336 0.0088243699
0.038973115 0.038178541 0.0085007669
0.040390402 0.038683996 0.0082747061
0.042016 0.039355267 0.0079799267
0.043259747 0.0402245 0.0073809098
-0.067973725 0.06547007 0.027105974
-0.076817282 0.06974481 0.021566626
-0.076126777 0.069475621 0.022097914
-0.080803446 0.11205374 0.045837801
-0.066781588 0.033759128 -0.0071148905
-0.065614425 0.033898138 -0.0066686887
-0.064431161 0.033641953 -0.0065862262
-0.063507564 0.033552837 -0.0060347421
-0.062901162 0.033564083 -0.0058193635
-0.062063094 0.033354707 -0.0054952274
-0.061105136 0.033321992 -0.0054714209
-0.05980264 0.033644121 -0.0054103085
-0.058937367 0.033472117 -0.0052555776
-0.057794351 0.033252373 -0.0050408794
-0.056620628 0.033450846 -0.0044716862
-0.055668551 0.033308379 -0.0046238699
-0.054389711 0.033194501 -0.0041584237
-0.053674806 0.033117566 -0.003961904
-0.052676499 0.033466574 -0.0035929971
-0.05165045 0.033519845 -0.0034023467
-0.050798684 0.033732824 -0.0034151545
-0.049832195 0.033473413 -0.0030902552
-0.048549324 0.033708517 -0.0031180792
-0.047765981 0.033679638 -0.0029331227
-0.046699077 0.033522148 -0.002725841
-0.045853321 0.033700075 -0.0024014632
-0.044475012 0.033670425 -0.0024621098
-0.043447066 0.033755656 -0.0023413708
-0.042151287 0.033585813 -0.0020133816
-0.041256662 0.033997845 -0.0018838665
-0.039690744 0.033973038 -0.0020069722
-0.03658722 0.038193062 -0.0051934281
-0.035978645 0.038377721 -0.0049467781
-0.034743145 0.03831384 -0.00480774
-0.033807475 0.038644914 -0.0045106141
-0.032766327 0.038232371 -0.0043262402
-0.031651244 0.038478136 -0.0041776616
-0.030792573 0.038269076 -0.0037668096
-0.029599955 0.038375154 -0.003445846
-0.028825708 0.038366549 -0.0032180967
-0.02749314 0.038465828 -0.0032313534
-0.026404684 0.038247578 -0.0030840507
-0.025688438 0.038084928 -0.002856879
-0.024449049 0.038407531 -0.0021203952
-0.023528013 0.038057402 -0.0022692797
-0.022516275 0.038515702 -0.0023398171
-0.021537906 0.038412306 -0.0021081667
-0.020370778 0.03838009 -0.0016359332
-0.019605145 0.038405806 -0.0014740633
-0.018185595 0.038179357 -0.0011572546
-0.017496793 0.038494628 -0.0012831504
-0.016372588 0.03832534 -0.00099701772
-0.015451976 0.038166244 -0.00078206201
-0.014410202 0.038525537 -0.00075463136
-0.013259051 0.03851736 -0.00059376261
-0.01240064 0.038439985 -0.00064845744
-0.011172726 0.03850593 -0.00021713425
-0.010413054 0.038807996 0.00023802422
-0.0091433618 0.038597852 0.00027142925
-0.0083825896 0.038748499 0.00059029821
-0.0070244158 0.038788337 0.00064977625
-0.0061256811 0.038782038 0.0010769304
-0.0051321699 0.038865875 0.0011994513
-0.0038107145 0.03862435 0.0011476829
-0.0028084938 0.038684268 0.0012494769
-0.0018200448 0.038886458 0.0015391285
-0.0012359319 0.03844865 0.0020878608
-0.00031664866 0.038208172 0.0025431158
-0.00012399885 0.036986783 0.0036520234
0.00025890378 0.03587155 0.0048163291
0.00080682884 0.034965646 0.0055226032
0.0018868404 0.034597028 0.0065242411
0.002597311 0.034131449 0.0065687695
0.003689986 0.034252014 0.0071574776
0.0049503637 0.033763897 0.0070470702
0.0061761565 0.035186 0.0063732862
0.0077795014 0.03643829 0.0059600594
0.021011429 0.036248729 0.0086583216
0.021579074 0.035603274 0.0093183713
0.022519054 0.034917705 0.0096201506
0.023299491 0.035024427 0.010111012
0.024339426 0.034669481 0.010556924
0.025248032 0.034542687 0.010915045
0.026256917 0.034456566 0.01132054
0.027394827 0.034673836 0.011078815
0.028347958 0.034894306 0.011263728
0.029389523 0.035104226 0.011465556
0.030685361 0.034999926 0.011730004
0.03173 0.035405509 0.011578225
0.03298853 0.035539851 0.011817778
0.033725861 0.035744671 0.011704347
0.035130955 0.036248233 0.011720062
0.036364131 0.036981706 0.011130241
0.037986428 0.037408073 0.010955416
0.039524108 0.037881657 0.010571242
0.040774308 0.039178897 0.0097100595
0.04245884 0.039711554 0.0096289786
0.043608364 0.040446725 0.0092656193
0.045044202 0.040817861 0.0086917253
-0.079621084 0.070772558 0.015226379
-0.080552265 0.10912555 0.035915874
-0.078984626 0.070125401 0.015809938
-0.077814929 0.069318704 0.016490093
-0.077380918 0.068974815 0.017139249
-0.06740962 0.03411727 -0.0049135983
-0.066463515 0.033900533 -0.0049496386
-0.065224409 0.03365393 -0.0047201551
-0.064622134 0.033295002 -0.0043386491
-0.063768901 0.033435054 -0.0041037234
-0.062512524 0.03349923 -0.0035980078
-0.061288416 0.03340162 -0.0035034274
-0.060607385 0.033491433 -0.0036404603
-0.059407678 0.033326659 -0.0034095268
-0.058401939 0.03356465 -0.0030722937
-0.057395574 0.033121128 -0.0029640589
-0.056519087 0.033322461 -0.0028367306
-0.055595767 0.033714097 -0.0022490206
-0.054441482 0.033676349 -0.0023049184
-0.053413991 0.033258006 -0.0021639795
-0.052187037 0.033123288 -0.0018832526
-0.051185187 0.033373587 -0.001815534
-0.050361227 0.033485506 -0.0016905308
-0.049200814 0.033653133 -0.0016124272
-0.048230398 0.033575661 -0.0011311023
-0.047380336 0.033275429 -0.0012211024
-0.045997944 0.033660732 -0.00075306161
-0.045046221 0.03365941 -0.000897447
-0.044115067 0.033991281 -0.00062254188
-0.043120138 0.033698328 -0.00067824905
-0.042135905 0.033829492 -0.00018947507
-0.041334167 0.033646919 7.9201796e-005
-0.040080238 0.033780288 0.00016048698
-0.038867306 0.033952419 3.7426449e-005
-0.035296027 0.038286477 -0.0028290234
-0.034627933 0.038406212 -0.0023953465
-0.033540249 0.03825542 -0.002526226
-0.032576758 0.03830358 -0.0021196068
-0.031459555 0.03847076 -0.0022793186
-0.030348685 0.038091674 -0.0018666841
-0.029392382 0.038768068 -0.0019066375
-0.028404644 0.038341954 -0.0016450594
-0.027079185 0.03858326 -0.001411548
-0.026487334 0.038155239 -0.0010054648
-0.025168708 0.038401391 -0.00083276472
-0.024353916 0.038185708 -0.00059511064
-0.023476632 0.0380054 -0.00024004908
-0.022291157 0.038508486 -0.00029799034
-0.021133877 0.038399927 2.0207379e-005
-0.020094175 0.038113419 0.00022699713
-0.019110376 0.038457807 0.00040117049
-0.018105147 0.038331587 0.00055926869
-0.017192185 0.038521528 0.00082486385
-0.016086634 0.03825498 0.0011236748
-0.015011448 0.038453657 0.0008747477
-0.014086762 0.038778149 0.0015110243
-0.013135619 0.038315538 0.0014028803
-0.011779962 0.038500216 0.0015789043
-0.010913914 0.038610902 0.0018983404
-0.010040139 0.038718991 0.0021055969
-0.0092295287 0.038606416 0.0022427537
-0.0075992886 0.038579136 0.002443563
-0.0068536149 0.03879416 0.0025691639
-0.0057885111 0.038742185 0.0027853481
-0.0047467621 0.038528901 0.0029739102
-0.0035959093 0.038491212 0.0031905305
-0.0028175986 0.039010935 0.0031785876
-0.0018276183 0.038672451 0.0039058123
-0.00088919792 0.03787446 0.00457804
-0.00092143612 0.036773734 0.0055493503
-0.00029049729 0.035573028 0.0066412166
0.00032806996 0.034760319 0.0072873705
0.0009577499 0.034357429 0.0080552734
0.001991774 0.034180902 0.0082222149
0.0029632419 0.034268536 0.008451906
0.0039425544 0.03443931 0.0087237759
0.0050292211 0.033996053 0.0093060974
0.022313001 0.035932381 0.010713422
0.02289841 0.035518896 0.011501207
0.023814019 0.035234902 0.012062336
0.024741638 0.034764539 0.012620211
0.025597492 0.034490965 0.012803656
0.0267148 0.034542926 0.013148255
0.027697332 0.034393374 0.013189228
0.029084884 0.03481039 0.013295537
0.029733762 0.035246089 0.012976559
0.03091866 0.034909956 0.013497305
0.032384098 0.035325799 0.013388092
0.033217974 0.035911392 0.0131353
0.034601524 0.036105294 0.013272387
0.035528455 0.03637008 0.013322374
0.037370313 0.036981747 0.012770639
0.038290579 0.037933674 0.012739754
0.040032983 0.038313784 0.012142167
0.041360967 0.039055813 0.011733412
0.042637434 0.039620522 0.011382109
0.043781064 0.04046515 0.011269236
0.045224693 0.041185614 0.01052355
-0.066999137 0.065043986 0.02774521
-0.065925486 0.065124415 0.027923524
-0.090019509 0.11622343 0.044228412
-0.082914256 0.11110003 0.042782519
-0.065291509 0.064779952 0.028595831
-0.069861762 0.03416311 -0.0047225067
-0.069024399 0.033975907 -0.003712608
-0.067956127 0.033813804 -0.0036629783
-0.066766568 0.033316195 -0.0029967702
-0.06609574 0.033698488 -0.0030852719
-0.065078944 0.033606254 -0.0028289908
-0.064191654 0.033351317 -0.0025487135
-0.063008763 0.033340901 -0.0020918646
-0.062247321 0.033507649 -0.0021885708
-0.061358064 0.033548862 -0.0018599599
-0.060077149 0.033540208 -0.0016935479
-0.059108067 0.033285186 -0.0015291417
-0.058097348 0.033431921 -0.0011583752
-0.057026934 0.033321384 -0.00091702247
-0.056166392 0.033367399 -0.0010113727
-0.055026706 0.033437159 -0.00043526871
-0.053996801 0.033124693 -0.00066373259
-0.05286739 0.033589035 -0.00034129337
-0.05198044 0.033358809 -0.00029500347
-0.050807253 0.033410199 -0.0001566709
-0.049836416 0.033707682 0.00063471938
-0.048623342 0.033341214 0.00026992455
-0.047795162 0.033497036 0.00070371875
-0.046966966 0.03381915 0.00079429691
-0.045590378 0.033682805 0.00079411757
-0.044770174 0.03376171 0.0012069945
-0.043712568 0.033590209 0.0016241301
-0.042928159 0.033516094 0.0014792298
-0.041633852 0.033437222 0.0018822283
-0.040575422 0.033450294 0.0021386824
-0.039644659 0.033226833 0.0023731696
-0.038664456 0.033567652 0.0026504749
-0.037478119 0.033580683 0.00269257
-0.03431851 0.03818116 -0.00084903865
-0.033264115 0.038212609 -0.00029608485
-0.032148089 0.038464602 -0.00016910996
-0.030962823 0.038252145 -0.0001181296
-0.030337341 0.038239043 -1.250809e-005
-0.028893936 0.038157713 0.00053091708
-0.027715785 0.037963584 0.00059651665
-0.026918467 0.03841624 0.00066347211
-0.025862578 0.038097832 0.00052912068
-0.025040619 0.038339265 0.001207873
-0.023828579 0.038370013 0.0011261882
-0.02301126 0.038674697 0.0014679827
-0.021759033 0.038438652 0.0015223151
-0.020846646 0.03826287 0.0019342946
-0.01983605 0.038081858 0.0025690587
-0.018930323 0.038256451 0.0021983592
-0.017759591 0.038526908 0.0021985576
-0.016536245 0.038662091 0.0026561138
-0.015502485 0.038351864 0.0028635417
-0.014270636 0.038219344 0.0031463476
-0.013589216 0.038420662 0.0031830918
-0.012831637 0.038246114 0.0033925923
-0.01176609 0.038471177 0.0033793999
-0.010891465 0.038410138 0.0034061805
-0.0096186996 0.038654864 0.0038952993
-0.008936842 0.038507458 0.0043104244
-0.0072516575 0.03848055 0.0042411438
-0.0062180581 0.038535975 0.004424124
-0.005410119 0.038864426 0.0046939105
-0.0045477431 0.0388074 0.004848606
-0.0033604247 0.038654707 0.0052321097
-0.002474833 0.038427643 0.0055295853
-0.0018922915 0.037726741 0.0063022184
-0.001518855 0.03669763 0.0072787036
-0.0010157811 0.035892885 0.0080944076
-0.00025871122 0.035156082 0.0092933225
0.00055409461 0.034303587 0.0095656496
0.0015694367 0.034179054 0.010254751
0.0022721549 0.034488536 0.010153753
0.0032921613 0.034244873 0.010518241
0.0044484506 0.034299981 0.010466735
0.0051522003 0.033896562 0.011287366
0.022634182 0.036111224 0.013046998
0.022980701 0.035410274 0.01333863
0.024093349 0.035118401 0.013616839
0.025063904 0.03443655 0.014383382
0.026559414 0.034681253 0.015000404
0.026751885 0.034557138 0.014688923
0.027972797 0.035023868 0.014824279
0.029161738 0.034896944 0.014889787
0.030503973 0.035123393 0.014992399
0.031669389 0.035898205 0.014664137
0.032594267 0.036067035 0.014600781
0.034128152 0.036172468 0.014894724
0.03507771 0.036933266 0.014423293
0.036446597 0.037005886 0.014549067
0.037624098 0.037575953 0.014350679
0.039293673 0.03829173 0.013917323
0.040511455 0.039039548 0.01350299
0.042017281 0.039543789 0.013574176
0.043176312 0.040196236 0.013324081
0.04470057 0.04074508 0.012901057
0.045937482 0.041615535 0.012426885
0.047353413 0.042290732 0.011998797
-0.076694906 0.068464808 0.017574728
-0.070495225 0.15276195 -0.046905968
-0.086017147 0.11482405 0.046315499
-0.063900493 0.065839753 0.031299084
-0.070570149 0.034526635 -0.0026976638
-0.069518007 0.03413574 -0.0022219098
-0.068819299 0.033544026 -0.0018044453
-0.067979425 0.0336737 -0.0017216001
-0.067108348 0.033310689 -0.001376958
-0.065799035 0.033462681 -0.0012701035
-0.065087587 0.033667967 -0.0010352747
-0.063947812 0.033507593 -0.00042075163
-0.062836073 0.033384427 -0.00047069325
-0.062065117 0.033452664 -0.00020917489
-0.060789771 0.033702388 0.00015782742
-0.059781574 0.033527404 0.00015326458
-0.058979869 0.033515945 0.00042843126
-0.057740755 0.033444259 0.00063984684
-0.056843832 0.033366632 0.0010595678
-0.05567662 0.033622533 0.00081464159
-0.054528341 0.033669982 0.00077818043
-0.053441033 0.033481449 0.0013472805
-0.052754913 0.033476405 0.001586518
-0.051674001 0.033242334 0.001910971
-0.050402187 0.033529069 0.0018765414
-0.049464989 0.033340845 0.0020356914
-0.04849527 0.033390205 0.0023416393
-0.047492377 0.033634346 0.0027529406
-0.046481237 0.033546362 0.0025361679
-0.045547921 0.033375639 0.0031326842
-0.044635132 0.033353932 0.0032863228
-0.043428671 0.033391017 0.0034742288
-0.042694189 0.033812717 0.0038373144
-0.04148601 0.033727065 0.0034343591
-0.040319797 0.033691168 0.0037314433
-0.039388403 0.033576917 0.0042703603
-0.038412575 0.033495259 0.0041268491
-0.03720773 0.033649456 0.0045623546
-0.036135025 0.03373545 0.0045476528
-0.035377257 0.033926144 0.0053715808
-0.031985287 0.038219977 0.001849701
-0.031083427 0.038313836 0.0017668769
-0.029642977 0.038163524 0.0017276162
-0.028828673 0.038192309 0.0020030483
-0.027807362 0.038368106 0.0024402903
-0.026814621 0.038280293 0.0026701116
-0.025645254 0.038201191 0.0026704476
-0.024657525 0.038212389 0.0027374283
-0.02342001 0.038503431 0.0029611737
-0.0224929 0.038410306 0.0033168378
-0.021678602 0.038356762 0.0034636417
-0.020597493 0.037877854 0.0035533803
-0.019637819 0.038645238 0.0042177825
-0.018383898 0.038353354 0.0042098262
-0.017681513 0.038523875 0.0044251941
-0.016118534 0.038381316 0.0043632938
-0.01537738 0.038058247 0.0046792855
-0.014166873 0.03854423 0.004922282
-0.013317238 0.038135216 0.0048870994
-0.012328438 0.038502902 0.005364331
-0.01144976 0.038361963 0.0056869052
-0.01040464 0.038300246 0.0055465521
-0.0092118364 0.038555138 0.005803871
-0.0081855096 0.038498558 0.0058296528
-0.0070697619 0.038440119 0.0062055932
-0.0061707362 0.03876226 0.0066639348
-0.0051149386 0.038295828 0.0066788532
-0.0039619296 0.038864676 0.0067499727
-0.003081033 0.03844928 0.0071774991
-0.0025178981 0.037533436 0.0078868037
-0.0017574434 0.037189793 0.0087726861
-0.001385816 0.035716243 0.0096292226
-0.00062537845 0.035166387 0.010246057
0.00025031107 0.035113741 0.011051318
0.00071217318 0.0347411 0.011383645
0.0015870476 0.034434047 0.012161727
0.0023212344 0.034160793 0.012255609
0.0034756421 0.034101494 0.012553398
0.0050073415 0.033986088 0.012510358
0.0053347843 0.033473577 0.013249462
0.022536304 0.036470722 0.013829005
0.022661118 0.036180627 0.014632001
0.023332827 0.035138734 0.015167726
0.02412314 0.034549884 0.016046654
0.025406355 0.034656428 0.016132509
0.026452783 0.034945395 0.01649012
0.027678046 0.035181515 0.017050302
0.028479941 0.035492394 0.016612589
0.029920531 0.035272658 0.016385812
0.030875226 0.035622358 0.016462663
0.032169983 0.035691269 0.016369227
0.033250023 0.036557931 0.016231691
0.034524947 0.036922429 0.016202839
0.035744011 0.037199814 0.016305514
0.037230678 0.037491109 0.015909716
0.038484849 0.038130052 0.015927624
0.039599456 0.038639303 0.015678203
0.040960267 0.039361592 0.01540821
0.042671677 0.039801564 0.01521575
0.043777615 0.040720429 0.014655977
0.045216218 0.041358188 0.014345382
0.04667585 0.041750107 0.013951896
0.048103135 0.042529769 0.013374735
-0.064355008 0.064544111 0.028779019
-0.075721927 0.068229474 0.017842649
-0.067129388 0.071456313 0.036375407
-0.083045766 0.11539547 0.048094623
-0.070808835 0.034490813 -0.0011045462
-0.0702952 0.033737402 -0.00029830736
-0.069648117 0.033978622 -6.3660787e-005
-0.068289511 0.033874203 0.00018831702
-0.067487426 0.033496018 0.00038627328
-0.066296175 0.033446327 0.00030497773
-0.065434478 0.033347335 0.0010975441
-0.064551093 0.033096898 0.00083658611
-0.063589714 0.033474948 0.0011782005
-0.062567808 0.033468384 0.001470259
-0.061646264 0.033699162 0.0016600111
-0.06037277 0.033519663 0.0019166892
-0.059682503 0.03348669 0.00241937
-0.058236953 0.033673946 0.0022392916
-0.05692789 0.033427764 0.0025140455
-0.056129698 0.033710454 0.0026919383
-0.055123832 0.033402484 0.0030447908
-0.054547094 0.033295386 0.0031069492
-0.053345438 0.033509873 0.003192262
-0.05210451 0.033637423 0.0032288749
-0.051186897 0.033565696 0.0038203434
-0.050766606 0.033230647 0.0037116294
-0.049015973 0.033447333 0.0042610751
-0.048157636 0.033649221 0.0043734955
-0.047297806 0.033323944 0.0044305087
-0.046171404 0.033566233 0.0047342037
-0.045207232 0.033552654 0.0046770694
-0.044097751 0.033383124 0.0052274955
-0.043200396 0.0334079 0.0053649298
-0.042073414 0.033012882 0.0055032824
-0.040839229 0.033580814 0.0054953685
-0.039902367 0.033623926 0.0059394212
-0.039214913 0.033570401 0.0058567957
-0.037926435 0.033736832 0.006210614
-0.036939148 0.03371644 0.0065000714
-0.035828702 0.033960596 0.0063938247
-0.035052098 0.03379216 0.0068869358
-0.033742327 0.033777282 0.0071245097
-0.030353894 0.038187541 0.0037060676
-0.029482717 0.037968222 0.003919953
-0.028410699 0.037973408 0.0040776553
-0.027399788 0.037962604 0.0042332998
-0.026196482 0.038545467 0.0044117412
-0.025416557 0.038062993 0.0048300694
-0.024293706 0.038093168 0.0049585067
-0.023318743 0.038533714 0.0052069928
-0.022273459 0.038021397 0.0051482404
-0.021375818 0.038195897 0.0055195875
-0.020073567 0.038115203 0.0054840446
-0.018956598 0.038386662 0.0058335057
-0.018195257 0.038315397 0.0061631538
-0.01684217 0.038272288 0.0062947376
-0.015962316 0.038431332 0.0064111971
-0.015043435 0.038175751 0.0064929551
-0.014049231 0.038462259 0.0069573917
-0.013038454 0.038502257 0.0068816389
-0.012042892 0.038526945 0.0073743435
-0.011048411 0.03819102 0.0076251784
-0.010048866 0.038289692 0.0076824222
-0.0090189064 0.038315888 0.0080623822
-0.0080068614 0.038533691 0.0079300208
-0.0067641698 0.038456004 0.0081627266
-0.0056674327 0.038604394 0.0083502326
-0.0049795154 0.038548019 0.008394246
-0.0039541866 0.038546167 0.0087835472
-0.0030350029 0.037874103 0.0092640063
-0.0027014541 0.037173145 0.0099919643
-0.001896396 0.036642339 0.010940586
-0.0013862036 0.035743203 0.011718544
-0.00061019033 0.035148885 0.012509586
3.5364777e-005 0.034594901 0.0131828
0.0012394541 0.034686394 0.013136528
0.0019738632 0.034185778 0.013791881
0.0028755812 0.034167513 0.014101444
0.003907627 0.033905271 0.014541307
0.0049378308 0.034194868 0.014735817
0.0059539638 0.033759534 0.014914592
0.021556962 0.036361851 0.01601957
0.022308666 0.03610931 0.016374135
0.022968905 0.035348672 0.016965548
0.023806769 0.034425177 0.017887345
0.024320493 0.034724418 0.017981483
0.025746236 0.034923807 0.018167555
0.026912302 0.0351617 0.017946798
0.027942117 0.035402354 0.018047031
0.029290752 0.035514273 0.01801616
0.030326374 0.036017437 0.018123498
0.031694692 0.036223892 0.018038213
0.033018734 0.036588676 0.017728746
0.033905234 0.036889501 0.017926566
0.034947399 0.037065193 0.017544838
0.036288865 0.037725531 0.017731093
0.03784002 0.038062017 0.017524667
0.038586844 0.038792931 0.017261133
0.040077407 0.039280109 0.017074378
0.041734483 0.039719146 0.017096408
0.042760991 0.040151909 0.01668697
0.044572923 0.040954344 0.016274737
0.045587718 0.041524064 0.016021788
0.0470571 0.042448845 0.0156588
-0.063753583 0.064314716 0.029336486
-0.062545463 0.064503141 0.029378703
-0.086841822 0.11584317 0.046859361
-0.055279791 0.064851932 0.03405359
-0.056168679 0.070888728 0.03898878
-0.071812682 0.034619797 0.00016939407
-0.071045749 0.034034912 0.00094008731
-0.070009053 0.033667412 0.0014911726
-0.069246635 0.033734594 0.0016775825
-0.068331599 0.033619165 0.0021991646
-0.067182735 0.033637218 0.0021625073
-0.066358291 0.033403292 0.0023012799
-0.065201432 0.03345374 0.0026696252
-0.064034276 0.033332374 0.0030681498
-0.063113354 0.033590257 0.0029608095
-0.062023334 0.033467654 0.0034278238
-0.060911078 0.033890992 0.003490489
-0.059977323 0.033385359 0.0037630771
-0.059242897 0.033526149 0.0040140613
-0.05812417 0.033538152 0.004131794
-0.056997556 0.033434357 0.0045584557
-0.055956218 0.033412218 0.004473289
-0.054996699 0.033620145 0.0047407057
-0.053995945 0.033643775 0.0048088464
-0.053013068 0.033540644 0.0049056467
-0.051900648 0.033646706 0.005288152
-0.050887045 0.033860821 0.0055296337
-0.049677808 0.033701651 0.0057177292
-0.048867933 0.033473119 0.0057113585
-0.047864623 0.033469137 0.0063362909
-0.046793874 0.033722259 0.0060361484
-0.045692861 0.03354514 0.006693169
-0.044596616 0.033823211 0.0066743824
-0.043959774 0.033690751 0.0065851789
-0.042405643 0.03387472 0.0069780494
-0.041639425 0.033760026 0.0072572231
-0.040269583 0.034011874 0.0074718869
-0.039363764 0.033608645 0.0077728909
-0.038696636 0.033641346 0.0079060392
-0.037672285 0.033609528 0.0082592145
-0.036760312 0.033478774 0.0082038958
-0.035468601 0.033944845 0.0087191379
-0.034656733 0.033585146 0.0086794309
-0.033598073 0.033785809 0.008682739
-0.032550514 0.033942178 0.0091146063
-0.029246673 0.038008571 0.0059329611
-0.027910937 0.038301572 0.0063575837
-0.026997725 0.038101587 0.0060965577
-0.025885066 0.038214561 0.0059619597
-0.024895826 0.038449716 0.0068180552
-0.024028635 0.037941583 0.0069360505
-0.023182154 0.03825058 0.0071019628
-0.022076534 0.038215622 0.0070820837
-0.021057475 0.038161512 0.0071604964
-0.019794455 0.03804861 0.0076405294
-0.019247575 0.038180616 0.0077692633
-0.017757203 0.038339335 0.0080475416
-0.016938739 0.038385067 0.0079406733
-0.015919955 0.038285941 0.0083677927
-0.014757786 0.038199238 0.0084443409
-0.013511658 0.038187139 0.0088177193
-0.01263075 0.03855662 0.0086066872
-0.011536808 0.03869262 0.0088810306
-0.010729228 0.038445573 0.0091850329
-0.0096047223 0.03872012 0.0095736785
-0.008426764 0.038526356 0.0095227174
-0.007584773 0.038394224 0.010000209
-0.0066060787 0.038502559 0.0099617755
-0.0055661811 0.038285729 0.010399976
-0.0045417133 0.038579773 0.01070802
-0.0037199366 0.038250521 0.011241016
-0.0028707294 0.037651144 0.011304878
-0.0021091474 0.037197314 0.012286877
-0.0016111827 0.036355596 0.012966281
-0.001069259 0.035765335 0.013807958
-0.00022129765 0.034985952 0.014529759
0.00047180607 0.034589034 0.014759527
0.0012462428 0.034545422 0.015384818
0.0024426591 0.034311868 0.015528211
0.0032978826 0.034193862 0.015783073
0.0044345022 0.034112282 0.01583601
0.0053314762 0.034298196 0.016776688
0.0064661866 0.034463737 0.016424246
0.0074491338 0.034446079 0.016665988
0.020635862 0.036736831 0.017638352
0.021580365 0.035646394 0.018290719
0.021864822 0.034742404 0.019034604
0.022841902 0.034885217 0.019302553
0.02407423 0.034841608 0.019545855
0.025336616 0.035199504 0.019692585
0.026264384 0.035267893 0.019635687
0.027638482 0.035213199 0.019681804
0.028344668 0.035912421 0.019714229
0.029677423 0.036188986 0.019839603
0.03078589 0.036456075 0.019382447
0.032090273 0.036593184 0.019591501
0.033185512 0.037181962 0.019536965
0.03463443 0.037286751 0.019256091
0.035714213 0.037935108 0.019128701
0.03698748 0.038295515 0.018896408
0.038306803 0.038613003 0.018939709
0.039416507 0.039240666 0.018793274
0.041025296 0.039706893 0.018300831
0.042552929 0.04010994 0.018576557
0.043502476 0.040855754 0.018041026
0.0448654 0.041686114 0.017883025
0.046325728 0.041891549 0.017482175
0.047778115 0.042699818 0.01695353
0.04921611 0.043757163 0.016271047
-0.06783551 0.071556874 0.035692774
-0.092157736 0.11640868 0.02427889
-0.079027578 0.079257615 0.032330897
-0.073042884 0.11004276 0.04254742
-0.0731427 0.035523981 0.0011326366
-0.072088026 0.034805417 0.0021177293
-0.07133133 0.03430682 0.0027192978
-0.070654027 0.034018781 0.0033553031
-0.069794096 0.034008939 0.0035459772
-0.068767779 0.0334213 0.0035923517
-0.067980275 0.033368792 0.0038736542
-0.06683939 0.033417396 0.0042155748
-0.065808602 0.033402994 0.0042313724
-0.064871505 0.03335011 0.0043519982
-0.063869283 0.03363084 0.0047879647
-0.062777661 0.033445776 0.0051673618
-0.061899643 0.033628546 0.0052702911
-0.06071195 0.033663381 0.0053507141
-0.059825215 0.033501361 0.0055546327
-0.058671121 0.033710789 0.0056551849
-0.057759412 0.03368777 0.005817513
-0.056476634 0.033439338 0.0060539087
-0.055791214 0.033515889 0.0064080209
-0.054648925 0.033338688 0.0064481474
-0.053635769 0.033635326 0.0065292632
-0.052587714 0.033551268 0.0071213264
-0.051290873 0.033494253 0.0071103792
-0.050593 0.033540752 0.0073759379
-0.049446613 0.033849347 0.0075670173
-0.048138872 0.034158513 0.0073979148
-0.04693431 0.03469931 0.0071235802
-0.046072476 0.034954544 0.0071961102
-0.044815823 0.034761783 0.0074862982
-0.04360909 0.034990191 0.0080885375
-0.042719059 0.034808043 0.0079232333
-0.041914366 0.034491401 0.0079879072
-0.040639628 0.034689013 0.0082263881
-0.039804187 0.034510665 0.0090725441
-0.038904004 0.03414176 0.0090447525
-0.038254242 0.033945683 0.0094512105
-0.037097409 0.033869032 0.0097735208
-0.036081031 0.033618826 0.010134733
-0.035048336 0.033752866 0.010518959
-0.03424013 0.033511151 0.010623117
-0.0331733 0.033889636 0.010679214
-0.031702433 0.033860207 0.010921663
-0.030717563 0.033834539 0.010993166
-0.027786542 0.03826391 0.0080772741
-0.026664533 0.038433179 0.0083548715
-0.025589744 0.038186565 0.0084353061
-0.024945214 0.038024571 0.0085274568
-0.023476591 0.038164556 0.0086153336
-0.022368683 0.03797479 0.008799077
-0.021693718 0.037996884 0.0092549054
-0.020559601 0.03838408 0.0090234298
-0.01938512 0.038244944 0.0093603842
-0.018627128 0.038351722 0.0098305745
-0.017435338 0.038365286 0.0096230106
-0.016671376 0.038236666 0.010384877
-0.015700161 0.03835129 0.010183869
-0.014161021 0.038524803 0.010442634
-0.013108452 0.038359914 0.010757326
-0.012400452 0.038264364 0.010907567
-0.011390273 0.038027626 0.01097848
-0.010073431 0.038415607 0.011295153
-0.009493147 0.03839197 0.011420466
-0.0082088728 0.038316831 0.011493759
-0.0072242422 0.038388368 0.011588857
-0.0062451535 0.038631186 0.011916274
-0.0050845803 0.038388856 0.012328677
-0.0042694942 0.038300909 0.012660879
-0.0032454419 0.038055819 0.012915494
-0.0026944045 0.03752926 0.013486272
-0.0017925529 0.037014045 0.014327774
-0.0012896655 0.036361016 0.014885955
-0.00061190344 0.035953358 0.01574238
0.00047879887 0.035278499 0.016252328
0.0012912991 0.03467267 0.016894495
0.0019523168 0.034564931 0.017073644
0.0030704082 0.034152262 0.017641092
0.0039420701 0.034370471 0.017862577
0.0046867798 0.034242801 0.017858798
0.0055082547 0.034051336 0.01837766
0.0067946105 0.034093447 0.018179355
0.0081348578 0.03500222 0.018180644
0.0092492895 0.034658734 0.018331934
0.01009344 0.034931429 0.01859789
0.019075176 0.036450282 0.019242601
0.019344 0.035475411 0.01999262
0.020388363 0.034811944 0.020632016
0.021195164 0.034596045 0.020830968
0.022344133 0.034814209 0.021095239
0.023566255 0.03512416 0.02117008
0.024661776 0.035408977 0.021136612
0.025839493 0.035584878 0.021259315
0.027004454 0.035920933 0.021214541
0.027932353 0.036021676 0.02133197
0.029358618 0.03615294 0.020862171
0.030270368 0.036662564 0.02114071
0.031750817 0.037185021 0.021111349
0.032850288 0.037082899 0.02092639
0.033925675 0.03782966 0.021114754
0.035183001 0.037971042 0.020584242
0.036591418 0.038482599 0.02075937
0.038004935 0.038780719 0.02055194
0.039119851 0.039622668 0.020134216
0.040376019 0.039964274 0.020129159
0.041652571 0.040272046 0.019793509
0.043066394 0.041044503 0.019743878
0.044242982 0.041604415 0.019230923
0.045483019 0.041914433 0.019217169
0.046874687 0.042766407 0.019181013
0.048435155 0.043349255 0.018497892
0.049865671 0.044163421 0.017991841
-0.075019866 0.067629695 0.018634085
-0.074360274 0.075634204 0.034723964
-0.069951184 0.114039 0.050395478
-0.068096019 0.078749441 0.040427033
-0.071061604 0.14819627 -0.034666505
-0.07254874 0.035582293 0.0030021206
-0.072011203 0.034604911 0.0037503832
-0.071176067 0.034244016 0.0046562003
-0.070232466 0.0339108 0.0049354872
-0.069241717 0.033583149 0.0052569541
-0.068404458 0.03393583 0.0053829751
-0.067510515 0.033740558 0.0057060895
-0.066503458 0.033982202 0.0058253305
-0.065322638 0.033246778 0.00587059
-0.064473838 0.033681527 0.006338594
-0.063147001 0.033762053 0.0065771076
-0.062134001 0.033445366 0.0066501829
-0.061455037 0.033458922 0.0068510287
