ply
format ascii 1.0
comment PCL generated
element vertex 1288
property float x
property float y
property float z
element camera 0
property float view_px
property float view_py
property float view_pz
property float x_axisx
property float x_axisy
property float x_axisz
property float y_axisx
property float y_axisy
property float y_axisz
property float z_axisx
property float z_axisy
property float z_axisz
property float focal
property float scalex
property float scaley
property float centerx
property float centery
property int viewportx
property int viewporty
property float k1
property float k2
end_header
0.0014022794 0.034599856 0.042947162
0.0025230746 0.034893896 0.044249497
0.00073732482 0.035696998 0.044485826
0.0023240582 0.035020653 0.043096744
0.0054853102 0.032240376 0.045933817
0.0062112594 0.034805696 0.045074008
0.0060425876 0.036219411 0.043762777
0.0082014361 0.03575182 0.042579286
0.010088359 0.037187468 0.045725178
0.011299944 0.034923572 0.044773556
0.012654494 0.036367781 0.044092976
0.013828009 0.03827833 0.044594582
0.014083194 0.037984848 0.044454087
0.016853547 0.037459355 0.044163063
-0.063052356 0.068069771 0.035716105
-0.07793539 0.080039717 0.034178488
-0.08673048 0.11194694 0.038455106
-0.076114528 0.075943187 0.035701856
-0.048053347 0.067635573 0.040521204
-0.060322385 0.068712838 0.037288614
-0.078828573 0.1131176 0.044326987
-0.065230615 0.08066304 0.04020419
-0.074302368 0.072210811 0.030342961
-0.071326785 0.11221001 0.047205158
-0.082088903 0.078409255 0.026642149
-0.078369655 0.072133996 0.024122613
-0.081842132 0.0768416 0.029117905
-0.052575238 0.073634662 0.042654805
-0.057494331 0.068932645 0.037623327
-0.074432477 0.1119103 0.048808314
-0.089820355 0.11646865 0.043312259
-0.090144202 0.11571724 0.035088018
-0.059203386 0.070737809 0.038702127
-0.06597957 0.074668936 0.038475707
-0.090787724 0.1151187 0.039731152
-0.079094782 0.10536745 0.031961497
-0.087106317 0.11281831 0.032980908
-0.090173081 0.11553182 0.029752459
-0.077400871 0.10719217 0.036347907
-0.063594334 0.073322974 0.037897088
-0.062947348 0.074828349 0.040308185
-0.080678806 0.11501572 0.046621565
-0.062573522 0.060807142 0.026690351
-0.027589802 0.034035396 0.051782947
-0.079066306 0.075080268 0.028121468
-0.05525928 0.070957571 0.038709711
-0.077492766 0.072613224 0.025967682
-0.076190658 0.067762874 0.0027141692
-0.071827702 0.066992998 0.0025591094
-0.072849497 0.066693611 0.0020736051
-0.071802057 0.065618075 0.0040874705
-0.070554361 0.062838353 0.004372959
-0.069588989 0.062836058 0.0052490681
-0.071095154 0.059369083 0.0084999027
-0.069286935 0.061861128 0.0065822774
-0.069373764 0.062811293 0.0073082941
-0.068001769 0.060580358 0.0079862271
-0.06707938 0.059973862 0.009286277
-0.066871911 0.062046308 0.0083895093
-0.06605155 0.060977072 0.0087414775
-0.064367175 0.059122011 0.0088364435
-0.063911639 0.059463255 0.012720353
-0.063412525 0.058514904 0.011239097
-0.062008794 0.059469637 0.0121963
-0.061404552 0.058816195 0.011331014
-0.059429005 0.058087721 0.013625173
-0.05904083 0.058050465 0.01225902
-0.058231931 0.055931553 0.013617562
-0.057316788 0.056940202 0.014111097
-0.056209926 0.057668235 0.013220733
-0.08132568 0.11643223 0.047590718
-0.064553313 0.033250105 0.030027535
-0.064545795 0.034490108 0.031575792
-0.063760407 0.035351973 0.032450952
-0.062925391 0.034775421 0.033231869
-0.06194282 0.035106782 0.031639144
-0.062189054 0.032556307 0.034565996
-0.060253717 0.034988806 0.031589709
-0.059625451 0.035110105 0.034089781
-0.059581101 0.033594195 0.032555167
-0.058119576 0.034360178 0.030739611
-0.056304153 0.034338016 0.034404013
-0.053468864 0.034668382 0.035443198
-0.052638359 0.036080968 0.034603171
-0.053549141 0.033614177 0.033955012
-0.052315608 0.032165341 0.033277314
-0.052053358 0.035942424 0.034083087
-0.051205851 0.034280438 0.033395216
-0.050976846 0.034995515 0.035764173
-0.047045007 0.033719976 0.035829272
-0.046695702 0.034075923 0.034705006
-0.04728616 0.035839584 0.03615709
-0.045691416 0.036082208 0.035428241
-0.04454764 0.035336714 0.036795996
-0.043943502 0.034852691 0.036957279
-0.040560562 0.035351172 0.036465287
-0.042315509 0.033699546 0.03729178
-0.039567351 0.034649916 0.037178531
-0.036523227 0.035590485 0.03695032
-0.035796311 0.0337703 0.03703773
-0.038012445 0.034076028 0.03743358
-0.035036828 0.034543898 0.037648071
-0.035244584 0.036409512 0.037215754
-0.034610603 0.034368709 0.039255671
-0.03335027 0.036081955 0.04018607
-0.031941302 0.034206573 0.0386035
-0.029572545 0.037570182 0.037157062
-0.026781725 0.040701535 0.035378184
-0.02573519 0.037407141 0.034607403
-0.026097421 0.038383182 0.036978837
-0.024410849 0.039377484 0.036168285
-0.022982504 0.036939707 0.037359457
-0.022731513 0.040033761 0.038169958
-0.023371108 0.03978163 0.038367145
-0.021741206 0.038755212 0.036521088
-0.021181734 0.040157337 0.036158733
-0.018232694 0.037989937 0.036237743
-0.015493773 0.038477995 0.037018992
-0.016562561 0.039182667 0.037475161
-0.016915334 0.040417757 0.037121605
-0.013911336 0.038968466 0.037582777
-0.014210364 0.038631227 0.037603032
-0.010826437 0.040439628 0.038392574
-0.010536569 0.041027885 0.038002376
-0.012139667 0.032859728 0.042464864
-0.0117094 0.035490189 0.042912561
-0.010255622 0.035262916 0.043196701
-0.0088337697 0.035388734 0.043188885
-0.0082581732 0.035094503 0.043366086
-0.0073419786 0.034874864 0.044154707
-0.0069475947 0.034738291 0.042795666
-0.0051826532 0.035254817 0.044084359
-0.0037261955 0.034708686 0.044126168
-0.0041280319 0.034730814 0.043457102
-0.0025834076 0.034615804 0.0458114
-0.0010733543 0.034096923 0.044103287
-0.00050661049 0.034915544 0.044158485
-0.00063911045 0.033147991 0.045753509
0.00082722423 0.035046481 0.046679825
0.0018864481 0.034907173 0.045715529
0.0026454022 0.03850143 0.044476483
0.0051243072 0.035457145 0.04527856
0.0063365144 0.036830783 0.04524646
0.0040050037 0.035697047 0.047455251
0.0094928741 0.036659554 0.045995209
0.010082314 0.037582744 0.044569079
0.011067501 0.037290551 0.046272863
-0.081730165 0.076815695 0.027929844
-0.080440857 0.079762802 0.028559653
-0.080673754 0.077914268 0.019463535
-0.074724004 0.071001589 0.029224571
-0.072119303 0.11130505 0.045231406
-0.081090748 0.11120852 0.043466281
-0.059508238 0.066594057 0.032501753
-0.063709266 0.070983335 0.037367437
-0.073045768 0.11098989 0.044682827
-0.07004638 0.14535029 -0.025573742
-0.089482449 0.1133154 0.034612175
-0.08708097 0.1116256 0.025732299
-0.061609562 0.063250989 0.025900912
-0.062209655 0.070609383 0.038131151
-0.082621284 0.10948734 0.029948093
-0.079665862 0.10968553 0.040893048
-0.080065504 0.11403663 0.049007606
-0.086614162 0.11198945 0.033279732
-0.085354596 0.11310367 0.033823837
-0.07768324 0.10971331 0.038608775
-0.072015516 0.11178149 0.048559256
-0.058021881 0.069064192 0.034996111
-0.09010233 0.11397579 0.022732299
-0.076928221 0.10914312 0.043349884
-0.058412787 0.064051159 0.025466489
-0.078422904 0.11304475 0.046708241
-0.054461021 0.073030718 0.04141077
-0.075833976 0.11608247 0.050581291
-0.073085546 0.065474048 0.0014178308
-0.072967686 0.066030681 0.0042036599
-0.073018186 0.063142516 0.0039521675
-0.073383443 0.067005612 0.0047505531
-0.073345326 0.064574882 0.0087788794
-0.070255436 0.063713558 0.0064252042
-0.071392469 0.062810935 0.0084952526
-0.069823608 0.061414368 0.010304912
-0.068991393 0.06291762 0.009983561
-0.068276875 0.060641892 0.010471631
-0.067876726 0.061058547 0.011291927
-0.067945145 0.06017765 0.01040854
-0.066705033 0.060490925 0.012258895
-0.066030644 0.059706226 0.013745519
-0.064205669 0.059885602 0.011723199
-0.06280303 0.057653699 0.013769318
-0.062898517 0.059997238 0.013230016
-0.061995361 0.059162963 0.012440281
-0.061257321 0.056961901 0.014181814
-0.060917646 0.058566 0.012870875
-0.058033302 0.057380818 0.013427598
-0.057529069 0.056698106 0.013616273
-0.056808785 0.055789128 0.014403673
-0.060224984 0.0672208 0.035092808
-0.066658951 0.034964029 0.032751244
-0.066824749 0.034911543 0.034264602
-0.06431888 0.034447018 0.032775823
-0.06392391 0.033005089 0.033153929
-0.063001327 0.032632142 0.034226201
-0.062897965 0.035568159 0.034032471
-0.06041801 0.03592119 0.035995964
-0.059683472 0.034196783 0.036521904
-0.060397718 0.035134312 0.03661282
-0.058277365 0.032554407 0.034875747
-0.057011485 0.032868102 0.034792077
-0.055876661 0.036167707 0.035774488
-0.055702731 0.034144625 0.03570427
-0.054041237 0.035563271 0.036610093
-0.052668974 0.035560723 0.036459237
-0.052005362 0.035634305 0.037280988
-0.053948119 0.033707581 0.037204832
-0.051443372 0.034889292 0.036488183
-0.050901417 0.036135342 0.03577473
-0.047765866 0.035633713 0.036465026
-0.04605842 0.0337383 0.039990515
-0.047103245 0.033836789 0.03831812
-0.045235142 0.033587012 0.038096592
-0.044405431 0.035026118 0.036761492
-0.043006033 0.033603352 0.037020497
-0.042072937 0.036142852 0.037655272
-0.042828232 0.035826508 0.039953381
-0.039592825 0.035117649 0.039307185
-0.039059058 0.034487363 0.040435418
-0.037335817 0.034472857 0.03802922
-0.03728452 0.033589609 0.038013406
-0.037082192 0.034154918 0.038529508
-0.035088234 0.036156226 0.041811582
-0.034185633 0.032186102 0.039887272
-0.031919561 0.03369518 0.040703546
-0.031811919 0.034016639 0.042205133
-0.030101448 0.034769651 0.039953496
-0.029501365 0.035702877 0.041393485
-0.026819039 0.0408598 0.03660978
-0.026458358 0.038933676 0.038182583
-0.025349034 0.040519159 0.038319111
-0.021971935 0.040209379 0.039336585
-0.020879392 0.039219741 0.038046826
-0.021275291 0.04045235 0.039688505
-0.021362621 0.039348789 0.039155502
-0.020222785 0.038903471 0.038872354
-0.019808115 0.037679154 0.039668702
-0.017697228 0.038314037 0.039937962
-0.014669158 0.040299822 0.041085862
-0.014128549 0.038192503 0.040289458
-0.014454009 0.035642829 0.043901924
-0.013729651 0.034469496 0.044318385
-0.013657466 0.034462221 0.043631203
-0.014417903 0.034307718 0.0434657
-0.013954771 0.035265803 0.044386346
-0.011480525 0.034778804 0.043373704
-0.010498719 0.03449453 0.04654431
-0.0094381087 0.033874948 0.045368534
-0.0086841388 0.034470916 0.045774754
-0.0067673856 0.035245527 0.045284312
-0.0063687614 0.035732299 0.046263922
-0.0043969774 0.034904532 0.046478283
-0.0027177678 0.033648323 0.044139065
-0.0041618156 0.035633802 0.046509672
-0.00065905461 0.036501713 0.045861281
-0.0019833997 0.034236688 0.046468545
0.00014860432 0.034944538 0.04695351
0.0014202027 0.037587587 0.045062922
0.0027886736 0.036081884 0.046069276
0.0036051357 0.037606407 0.046902254
0.0043506422 0.037831604 0.045704748
0.0074226232 0.038485408 0.046498943
0.007651954 0.041225288 0.04379721
0.0093708998 0.038573828 0.044888761
-0.075949714 0.11477827 0.0476203
-0.08215636 0.1118743 0.040781733
-0.083351493 0.11286557 0.047361761
-0.074966334 0.07823658 0.033626392
-0.069218718 0.07190071 0.036677167
-0.067683123 0.1492645 -0.037513126
-0.077016816 0.077942573 0.034377687
-0.075380869 0.075482957 0.031656567
-0.059760101 0.062739693 0.027508268
-0.089205354 0.11509658 0.035610236
-0.052289795 0.066429876 0.034831077
-0.081577793 0.076966964 0.022899643
-0.060161691 0.068688557 0.03668873
-0.090666346 0.1133019 0.022772202
-0.067950629 0.067344591 0.028882017
-0.083709113 0.11031208 0.037932798
-0.084727705 0.11479957 0.045244034
-0.082767576 0.1108661 0.030086473
-0.072569706 0.11174506 0.040994905
-0.080322571 0.076920569 0.028854035
-0.085739754 0.11219836 0.034092814
-0.059787679 0.069014437 0.037356578
-0.066891424 0.067854553 0.031171544
-0.066662274 0.069389462 0.033155903
-0.069717735 0.070023127 0.033723515
-0.077547133 0.074941255 0.030274197
-0.059849888 0.062448077 0.028308857
-0.074874252 0.06540098 0.0061352793
-0.077830948 0.11043242 0.044914551
-0.076647118 0.068604849 0.0022028389
-0.076189362 0.066660002 0.0059496891
-0.074975193 0.065960869 0.00563491
-0.07412117 0.065646678 0.0048001427
-0.07154312 0.064323984 0.0081344079
-0.072507016 0.064354613 0.0075468384
-0.071412273 0.064977825 0.0074294386
-0.070816405 0.061635725 0.010060053
-0.070772722 0.06294436 0.0088727511
-0.068817087 0.061265826 0.0096635148
-0.068681829 0.059492446 0.011453904
-0.069017284 0.061577529 0.012272424
-0.067111515 0.060780898 0.013512292
-0.067101985 0.060968149 0.012171091
-0.065307595 0.059219126 0.011799962
-0.065532006 0.060330138 0.015274357
-0.063116908 0.057972319 0.015235917
-0.063895471 0.060949896 0.014600672
-0.059408728 0.059576429 0.014826138
-0.060577609 0.057694759 0.01607148
-0.061721202 0.056383856 0.015000862
-0.060207393 0.057537459 0.015906135
-0.058546185 0.058382843 0.017711055
-0.05635583 0.057950925 0.019057665
-0.089634635 0.11307929 0.03615744
-0.074750923 0.11032608 0.049381025
-0.067850932 0.033960387 0.034283724
-0.06486997 0.032505274 0.034967035
-0.065622628 0.034751404 0.036035199
-0.062478688 0.034794882 0.035371818
-0.06432011 0.031860482 0.035607558
-0.061453477 0.034576666 0.035230588
-0.060457777 0.03401522 0.036865197
-0.059873525 0.035828348 0.036326002
-0.057638481 0.035482895 0.037360962
-0.056349583 0.035965711 0.03811558
-0.0568274 0.035380024 0.037762333
-0.055108931 0.033757061 0.038275342
-0.054898351 0.036035188 0.036407802
-0.05249941 0.036353305 0.0366707
-0.051853679 0.034601994 0.037652716
-0.052138001 0.033741005 0.035701588
-0.050788403 0.034816664 0.038566645
-0.048485909 0.034266584 0.039336763
-0.047871694 0.035015605 0.038426299
-0.047195595 0.034754928 0.040332846
-0.046365183 0.034500137 0.040892594
-0.046032358 0.034244228 0.04020923
-0.04486315 0.03443509 0.039906275
-0.043799981 0.035204742 0.040370349
-0.042620089 0.036722135 0.041127227
-0.042018525 0.035608675 0.040132973
-0.042790856 0.037381276 0.041251119
-0.038925499 0.034548625 0.040745892
-0.038580827 0.034489181 0.039399493
-0.037205122 0.034665428 0.039674953
-0.037499066 0.033981051 0.040718958
-0.036539998 0.034323949 0.041608185
-0.034299929 0.033835661 0.038887374
-0.033115964 0.035567969 0.042539366
-0.030920191 0.035946872 0.03980023
-0.032093827 0.03551089 0.043639265
-0.029962821 0.035326034 0.040980164
-0.028857503 0.034644037 0.042447489
-0.026565922 0.034819495 0.043417372
-0.026662709 0.033980966 0.043284167
-0.027624659 0.034376163 0.044204734
-0.025229108 0.034288496 0.042250354
-0.024556559 0.034640059 0.043546006
-0.023898454 0.03590592 0.044671182
-0.021623693 0.03640477 0.044578973
-0.022698719 0.03546264 0.045794323
-0.021792656 0.035112947 0.046320569
-0.01968235 0.035953343 0.046159275
-0.017911332 0.036010064 0.044678841
-0.017310131 0.034730829 0.046042118
-0.016325762 0.033344891 0.046675518
-0.015795609 0.035601512 0.045310415
-0.014795336 0.033759542 0.045640837
-0.014041188 0.032728296 0.045045353
-0.012093555 0.034852285 0.045626014
-0.010717949 0.035742104 0.047565632
-0.0097770235 0.034299809 0.046348922
-0.007348381 0.033867136 0.048058961
-0.0080829943 0.033280715 0.04696295
-0.0071735242 0.03463522 0.046749372
-0.0063738595 0.036102902 0.046371363
-0.0047714515 0.033701736 0.048646443
-0.0028175586 0.034954764 0.046804782
-0.0022205447 0.036355302 0.047792852
-0.00037082488 0.036562376 0.04903315
0.001246264 0.038255565 0.047160514
-0.083285913 0.11577515 0.046500396
-0.050462849 0.068861373 0.035455894
-0.076485954 0.116413 0.051988628
-0.08796902 0.11452277 0.029011579
-0.069908813 0.10917953 0.038779832
-0.087083966 0.1121946 0.027879568
-0.07756684 0.075123399 0.030722573
-0.070951484 0.065483131 0.026976261
-0.067028657 0.077119559 0.0419458
-0.064130396 0.068129867 0.032877233
-0.075886741 0.10757977 0.035665166
-0.063868627 0.074727647 0.03820122
-0.078573242 0.077399261 0.031611893
-0.062518328 0.068047546 0.032711677
-0.049599219 0.071436547 0.039147023
-0.065260813 0.076654382 0.041439258
-0.058464255 0.06209648 0.026064947
-0.075459167 0.070352785 0.02514378
-0.061193027 0.068459898 0.034196582
-0.073518947 0.073421977 0.031828478
-0.050327722 0.068671234 0.038440213
-0.072814614 0.068365246 0.028004179
-0.051016703 0.070954487 0.038339384
-0.079152539 0.073298916 0.023272308
-0.069800638 0.14901923 -0.033722892
-0.052525789 0.072021894 0.041088801
-0.076901712 0.078132488 0.030934907
-0.053943373 0.065864727 0.035163458
-0.086289898 0.11220758 0.027222695
-0.080020159 0.07751213 0.025687404
-0.056521002 0.067029983 0.038229529
-0.073760949 0.074376084 0.036831789
-0.057481866 0.061537366 0.028415099
-0.069518059 0.069393277 0.030286819
-0.066954665 0.068520375 0.03250796
-0.079180509 0.074672587 0.020607729
-0.071902685 0.075099215 0.034173079
-0.073395148 0.07289806 0.032475211
-0.063681304 0.068719007 0.034439296
-0.072714642 0.065181263 0.008093508
-0.074341729 0.065296263 0.0082109906
-0.073405161 0.065745786 0.0081553869
-0.07382445 0.063785121 0.0096778292
-0.071553931 0.063339218 0.012190251
-0.072409935 0.061969724 0.011626529
-0.071180277 0.062642194 0.011047062
-0.07195849 0.062430251 0.010040062
-0.069216102 0.060072064 0.014047082
-0.069206946 0.060966074 0.013581649
-0.066452757 0.06078928 0.015095933
-0.066709489 0.059868976 0.012089066
-0.067432314 0.062085807 0.014813084
-0.064479895 0.060053464 0.016751114
-0.064679995 0.058610659 0.016183961
-0.062500991 0.057233531 0.014897507
-0.063100249 0.059076935 0.016738936
-0.062022049 0.060022831 0.01634454
-0.061134666 0.057790186 0.017260425
-0.060012896 0.05997327 0.01856903
-0.060195114 0.057407841 0.018166576
-0.058279693 0.058341797 0.019289762
-0.056780517 0.058612373 0.018625166
-0.075467452 0.069229983 0.023033738
-0.065618873 0.03591612 0.036098346
-0.06725885 0.03557425 0.036730506
-0.064569563 0.035065278 0.03746815
-0.066070184 0.033452649 0.036312692
-0.064379461 0.032640144 0.037806343
-0.062129155 0.034980025 0.037590913
-0.06239789 0.034543354 0.036537759
-0.059803981 0.034378171 0.037510708
-0.062460698 0.034306359 0.037524924
-0.05685512 0.032558203 0.038251087
-0.056325048 0.033555098 0.038219023
-0.056635134 0.034665596 0.039830212
-0.055347245 0.033806019 0.037548978
-0.055408195 0.036024608 0.038255658
-0.051441591 0.033239339 0.040955365
-0.052394163 0.033633251 0.040139727
-0.049882069 0.034430269 0.039435331
-0.051835932 0.034207471 0.039988499
-0.049429372 0.034395125 0.041054383
-0.046997707 0.033234175 0.04116679
-0.047061805 0.034485411 0.042595673
-0.047079951 0.034216218 0.040528025
-0.046574753 0.03386572 0.04147331
-0.042815566 0.033854973 0.041310862
-0.042779233 0.03412858 0.041223466
-0.041000918 0.033082336 0.044272594
-0.039938185 0.034620684 0.041025784
-0.038640395 0.034825105 0.040701635
-0.039319232 0.034381792 0.042985894
-0.036455851 0.034032367 0.043588303
-0.038201611 0.033845149 0.042586897
-0.036799245 0.033882644 0.04243736
-0.037000641 0.034081589 0.043266937
-0.033589013 0.034876503 0.043565545
-0.032759387 0.034469683 0.04497122
-0.031229902 0.035503127 0.044033762
-0.031136753 0.035185546 0.044603262
-0.030902136 0.034629941 0.044370741
-0.029346222 0.036196582 0.045971494
-0.029585797 0.034658976 0.043441184
-0.028083762 0.035778027 0.047731739
-0.025963908 0.034335341 0.044379335
-0.024202934 0.03578322 0.044800166
-0.026117977 0.034123011 0.046708088
-0.023770768 0.035552777 0.046289746
-0.019336466 0.035619669 0.047046144
-0.019834444 0.035121959 0.047029927
-0.019298727 0.034813348 0.045272335
-0.01746322 0.034358412 0.04720287
-0.019035151 0.035366416 0.046961233
-0.017107207 0.03499376 0.04598663
-0.015266885 0.033313371 0.047831848
-0.015130328 0.035484817 0.047713824
-0.01485252 0.032945301 0.04782778
-0.012041121 0.033785824 0.049149986
-0.012157945 0.034619186 0.049098022
-0.01161437 0.036279842 0.048350699
-0.0076860003 0.034523636 0.048304345
-0.0088261263 0.035992131 0.048895944
-0.0082393279 0.035535999 0.047732916
-0.0069597438 0.034566477 0.046612389
-0.0046148011 0.03488683 0.050170735
-0.0024293154 0.035288736 0.049855549
-0.079847559 0.071645483 0.019015679
-0.078335665 0.071346194 0.020244386
-0.079859562 0.069600761 0.02032364
-0.066772848 0.078012727 0.040590007
-0.076164573 0.10732409 0.036986407
-0.064768955 0.070008226 0.035450153
-0.065229438 0.069248974 0.036883544
-0.069254421 0.076823413 0.038179994
-0.069361039 0.072825328 0.034455772
-0.071503386 0.14934622 -0.037407629
-0.065117583 0.069735371 0.036032811
-0.078712545 0.069791511 0.018706977
-0.088738747 0.11473802 0.04504355
-0.083745368 0.10942303 0.037200842
-0.074618302 0.1118675 0.044978444
-0.076418325 0.070049994 0.021701952
-0.076144226 0.1085545 0.044075642
-0.090446487 0.11237115 0.016560588
-0.062153511 0.068252541 0.035320401
-0.078237057 0.074935824 0.022008605
-0.061276305 0.065577991 0.031686202
-0.06453149 0.067596391 0.035138901
-0.080639578 0.075806819 0.020243717
-0.090008877 0.11227823 0.020578047
-0.075441897 0.069714539 0.018272452
-0.053036071 0.0670003 0.038898405
-0.076551877 0.067515343 0.020791523
-0.072917268 0.0704716 0.022890192
-0.08540877 0.078789048 0.014605588
-0.089498214 0.1128661 0.037277929
-0.088261172 0.11243004 0.019270286
-0.052644406 0.065775856 0.033975743
-0.07353092 0.067930505 0.022128589
-0.071600109 0.066699885 0.024991123
-0.07166478 0.075684063 0.035634387
-0.072134852 0.065786138 0.02316873
-0.070639163 0.064276688 0.024088977
-0.070231065 0.066082031 0.025319023
-0.06907811 0.065072775 0.025808394
-0.068504654 0.067391209 0.026664382
-0.068423077 0.063877374 0.02613043
-0.066501908 0.066001505 0.026825272
-0.076783091 0.066756174 0.008999005
-0.067497492 0.074693933 0.038112503
-0.073942363 0.065035544 0.0075009884
-0.075928725 0.064381354 0.0098019578
-0.071965165 0.063148506 0.011984405
-0.071658336 0.062849447 0.013219537
-0.072211795 0.064125717 0.012370321
-0.070591442 0.061339136 0.01266216
-0.069823347 0.061959721 0.012944974
-0.068844356 0.060379039 0.014584493
-0.068763115 0.062686704 0.014378339
-0.067489102 0.062167879 0.015490462
-0.065192848 0.06104432 0.016477976
-0.064922608 0.059258915 0.016703492
-0.062468708 0.060268193 0.017472943
-0.064192876 0.060813289 0.018872103
-0.064456873 0.059194211 0.016883107
-0.062053412 0.057871126 0.018991806
-0.059013661 0.059745148 0.017094452
-0.060384121 0.06024928 0.016164677
-0.05954833 0.059056301 0.017919617
-0.0596149 0.058442626 0.019394577
-0.058933839 0.060410917 0.017125158
-0.088621192 0.11264601 0.038554963
-0.066055082 0.064371452 0.027718047
-0.067124926 0.03557054 0.038915139
-0.065988854 0.035364382 0.038709007
-0.063865229 0.032857187 0.038661167
-0.063287519 0.034575447 0.038646847
-0.061450388 0.035974327 0.037372321
-0.061898977 0.033191752 0.038844645
-0.059481408 0.035681795 0.038164396
-0.060616616 0.034877073 0.039065477
-0.060256526 0.032957405 0.038406175
-0.059184313 0.035749484 0.040552456
-0.056252133 0.032892413 0.039280735
-0.055358727 0.033693273 0.039397556
-0.056742921 0.03379038 0.043041974
-0.054742146 0.032983333 0.041111581
-0.051348381 0.035035256 0.041353334
-0.052078869 0.034120481 0.041704107
-0.050771717 0.033565309 0.041314483
-0.048581902 0.033787709 0.04243701
-0.047770366 0.032627612 0.042606376
-0.049371298 0.03494085 0.042671457
-0.047063492 0.034995541 0.041409086
-0.044268176 0.034136865 0.040895667
-0.044222265 0.0348965 0.044309486
-0.042766221 0.036954965 0.042406552
-0.041653711 0.036130894 0.044595025
-0.040381614 0.035000175 0.043207359
-0.040473603 0.035805169 0.042870041
-0.040723044 0.036145996 0.043308366
-0.038493574 0.033634588 0.043382831
-0.03801446 0.035929278 0.044942882
-0.036038451 0.035733361 0.04479637
-0.035459258 0.035192989 0.045107186
-0.034709699 0.035524756 0.045220777
-0.034226838 0.033169687 0.046639495
-0.03315163 0.035471033 0.04492547
-0.031551737 0.035650671 0.045553882
-0.028938426 0.03514662 0.044583149
-0.03056878 0.033340257 0.04580567
-0.028398141 0.034492616 0.04604847
-0.028507967 0.032363206 0.048001762
-0.025000723 0.036067005 0.048013944
-0.022877293 0.035643779 0.046683334
-0.0243298 0.035116296 0.046791088
-0.023800064 0.035679817 0.045843728
-0.02250959 0.03569096 0.048082221
-0.022122445 0.034856264 0.048020959
-0.021135654 0.035397936 0.047899026
-0.01907298 0.032907356 0.049323726
-0.019267701 0.033208817 0.04860184
-0.01695719 0.035745129 0.047908064
-0.015930278 0.03519959 0.050371867
-0.015590216 0.0352141 0.049582817
-0.014690084 0.032106429 0.048362818
-0.013523939 0.036178492 0.048671346
-0.011194252 0.036641411 0.049838614
-0.01084308 0.035798393 0.048226334
-0.0096106064 0.036895916 0.050884835
-0.0096981339 0.033886172 0.048789218
-0.0076470128 0.036807019 0.047709551
-0.0058455579 0.036293007 0.048635263
-0.066439621 0.064775631 0.028304927
-0.064253114 0.063445345 0.027770841
-0.084794983 0.11763825 0.049763691
-0.062615879 0.064469859 0.027642278
-0.064863168 0.07236927 0.037202679
-0.066533484 0.080353394 0.041032251
-0.080319911 0.074568592 0.019773651
-0.068532467 0.067127101 0.030937877
-0.07229384 0.072154284 0.032800853
-0.069470838 0.11183341 0.044232521
-0.072688602 0.10712355 0.036223628
-0.06227041 0.063650012 0.028165122
-0.07816992 0.11783067 0.052907236
-0.087613039 0.1144438 0.044014744
-0.089353494 0.1155306 0.043870222
-0.086631946 0.11220317 0.039652135
-0.084568344 0.075419053 0.014720253
-0.081354514 0.076345719 0.016584972
-0.061488133 0.06515763 0.028596407
-0.081431754 0.075579681 0.026384119
-0.061431699 0.064339332 0.028613912
-0.084928989 0.11166488 0.036054906
-0.07104148 0.07179521 0.032842916
-0.080080263 0.078148782 0.030703064
-0.061201874 0.062763423 0.028837934
-0.068372592 0.11255661 0.043766744
-0.057661366 0.063046664 0.030766875
-0.054715775 0.067223802 0.036555603
-0.08103402 0.1094363 0.041904382
-0.057555702 0.063116021 0.029890183
-0.07586123 0.10633311 0.036231387
-0.05933734 0.066764049 0.036198083
-0.057970617 0.074058369 0.040779784
-0.057778414 0.063197717 0.029707907
-0.083582729 0.11059598 0.034236684
-0.065863624 0.077500626 0.038814884
-0.056366373 0.062954701 0.028828681
-0.080021277 0.072543733 0.0035742479
-0.080933437 0.072324604 0.0044836896
-0.080729991 0.06970191 0.0046288567
-0.078171477 0.071058117 0.0076643657
-0.078545853 0.070573851 0.0072735613
-0.076469548 0.068631448 0.0076586236
-0.055764914 0.063966326 0.031915873
-0.060281619 0.071383938 0.040849943
-0.075675189 0.066416174 0.0084510967
-0.074108325 0.066348583 0.010997592
-0.073264681 0.06671197 0.010487636
-0.073624432 0.064211965 0.01327226
-0.072544314 0.063632332 0.012407368
-0.071400687 0.063804016 0.012402419
-0.072116621 0.062226865 0.01516772
-0.069934689 0.062925637 0.015273915
-0.071319208 0.063394144 0.016704999
-0.06757053 0.062227104 0.01713052
-0.069864631 0.061702974 0.016252346
-0.066121399 0.061348524 0.016945999
-0.067844018 0.05993918 0.018145122
-0.065826803 0.059734639 0.017663181
-0.065503448 0.060357038 0.019758865
-0.061822176 0.060055114 0.018904518
-0.061203603 0.059990097 0.021040253
-0.060886893 0.055946592 0.01934061
-0.05960976 0.060209718 0.019298246
-0.059895664 0.060514953 0.020498488
-0.058848664 0.060364526 0.019339588
-0.059204545 0.059882138 0.019717526
-0.086836666 0.11361983 0.038491841
-0.053515323 0.063129321 0.032245696
-0.081812106 0.10983673 0.029821938
-0.065537252 0.036230769 0.038121801
-0.063126251 0.035528593 0.040629052
-0.063529857 0.035180219 0.040664889
-0.062348731 0.034730352 0.038595479
-0.062880136 0.034498591 0.040563323
-0.061803024 0.035509106 0.040892493
-0.059221916 0.034595322 0.043018445
-0.058656354 0.033792935 0.041531019
-0.058812123 0.032686073 0.04129779
-0.057921909 0.034712635 0.042491287
-0.057252858 0.036283679 0.042743132
-0.05413691 0.035226427 0.044890001
-0.054391872 0.032614078 0.042317595
-0.053213436 0.033090111 0.043004736
-0.052221291 0.035245009 0.042972166
-0.049398683 0.033036545 0.042937648
-0.049402304 0.035252709 0.04349193
-0.048665766 0.033591934 0.043853458
-0.04852644 0.036142148 0.042393945
-0.047754705 0.032810081 0.045191769
-0.047494944 0.036821701 0.042897351
-0.043825407 0.035551142 0.041651886
-0.044813205 0.035548858 0.04489575
-0.042460557 0.035232667 0.045250926
-0.041363962 0.038021076 0.043652415
-0.081920125 0.11451669 0.047453783
-0.076463737 0.072105013 0.031920396
-0.088259503 0.11299901 0.03993924
-0.038090035 0.035724275 0.046487138
-0.036880732 0.037030049 0.046228778
-0.035007417 0.035543475 0.044943552
-0.033818696 0.034597818 0.046155736
-0.032357991 0.03609651 0.045353033
-0.03432041 0.034910347 0.045282185
-0.033219319 0.036010053 0.045734599
-0.030537209 0.035541032 0.047942832
-0.029881695 0.033858694 0.046968676
-0.028922206 0.035396181 0.046853285
-0.026085572 0.03530284 0.048764344
-0.025850194 0.034313936 0.048123691
-0.027320433 0.03486155 0.049358863
-0.023117794 0.035572585 0.048148841
-0.023860339 0.034729216 0.04850829
-0.022716368 0.034372319 0.048745953
-0.020899095 0.035073444 0.049359437
-0.020899644 0.033909887 0.05092825
-0.019450832 0.035844378 0.049295325
-0.018060783 0.034446616 0.051250611
-0.018543119 0.03449155 0.049684744
-0.015923146 0.034542054 0.052226726
-0.016111773 0.035240237 0.048377629
-0.017365621 0.036585957 0.050715826
-0.01376198 0.035880856 0.050669331
-0.012575618 0.035345536 0.051186141
-0.010134668 0.035693653 0.050633799
-0.009789208 0.036683183 0.048891384
-0.082944147 0.11013975 0.045075528
-0.073954791 0.11059835 0.044745121
-0.069422334 0.1486495 -0.030633377
-0.078849159 0.071821027 0.020438658
-0.065727741 0.11337587 0.043188225
-0.084677279 0.11636329 0.049755096
-0.082273774 0.076401092 0.020156374
-0.081827618 0.10954398 0.030350145
-0.071110614 0.070222035 0.028690252
-0.083061799 0.076081045 0.019629659
-0.083183408 0.077455014 0.019661821
-0.069884978 0.070355102 0.030049099
-0.078629039 0.11530136 0.051162541
-0.048235279 0.068840273 0.03797368
-0.077993602 0.076136626 0.027685031
-0.079562306 0.076527119 0.024609711
-0.062975988 0.071879201 0.036406867
-0.058058109 0.062064778 0.032325778
-0.076557644 0.07586766 0.032317676
-0.073582366 0.074366093 0.033760101
-0.059686791 0.070428647 0.037159037
-0.070246615 0.1499334 -0.036987539
-0.068862028 0.069148876 0.026132345
-0.074988186 0.071004219 0.03233099
-0.07942155 0.071242757 0.020505626
-0.065841027 0.07866554 0.041465014
-0.088781193 0.11508039 0.027011255
-0.074665658 0.070963614 0.031812496
-0.062859334 0.067870595 0.036923837
-0.086638056 0.11338422 0.020180888
-0.056903489 0.066992797 0.035488203
-0.079780392 0.070912518 0.0213216
-0.085232385 0.1144034 0.027773693
-0.053507179 0.065461211 0.034615409
-0.065719016 0.069624774 0.035560545
-0.067239583 0.066526428 0.028478095
-0.073842995 0.10895438 0.041475393
-0.080516666 0.11072604 0.038166944
-0.067489773 0.075267777 0.040354412
-0.067458488 0.068379544 0.034540694
-0.074384511 0.069299743 0.022837592
-0.090492904 0.11364068 0.039685331
-0.078228973 0.069473945 0.0075323549
-0.079179302 0.070247866 0.0066156024
-0.079541497 0.069846742 0.0087475209
-0.077830613 0.068581477 0.011221207
-0.076518677 0.068759717 0.0087415511
-0.074448213 0.068983555 0.013023843
-0.077419817 0.066341124 0.012525472
-0.073949568 0.065912269 0.013960773
-0.072607599 0.065804526 0.012716861
-0.074593872 0.066319183 0.013598328
-0.075053051 0.066170201 0.014620861
-0.0732169 0.064202257 0.015796822
-0.070950776 0.062781274 0.015054438
-0.068739332 0.062949158 0.015591614
-0.070143931 0.062039658 0.016829483
-0.067400239 0.060820244 0.017225603
-0.068574846 0.062224071 0.019474193
-0.068517439 0.061240107 0.019825013
-0.065848112 0.061259393 0.019764367
-0.066283599 0.060746148 0.020569805
-0.065925397 0.061243001 0.019451343
-0.062171951 0.061418604 0.019420244
-0.063798539 0.062201992 0.020000907
-0.062336128 0.062022209 0.020925222
-0.061097868 0.060272355 0.02134387
-0.059283283 0.058979131 0.020823462
-0.059570778 0.061136797 0.021308854
-0.059294406 0.059409421 0.021238392
-0.070866339 0.069528773 0.034577016
-0.087522425 0.10934507 0.039712194
-0.078267537 0.06921427 0.021855779
-0.076663204 0.077705301 0.036487568
-0.067111343 0.037638299 0.041303232
-0.062386286 0.03546026 0.040647093
-0.063193932 0.035423785 0.041677017
-0.06329304 0.035285339 0.042549416
-0.061408829 0.037072487 0.041390877
-0.061616391 0.035342485 0.043305703
-0.061841868 0.0345558 0.040399253
-0.059493925 0.03535036 0.043479454
-0.058692016 0.037206277 0.04381955
-0.057297762 0.036239929 0.043142024
-0.056966793 0.034553863 0.042814989
-0.054736692 0.03421773 0.042615484
-0.053902127 0.033951059 0.043335095
-0.052923467 0.035211962 0.043899745
-0.051108319 0.036547326 0.044043258
-0.052120857 0.037510727 0.044497754
-0.071414486 0.11256155 0.046375014
-0.088389017 0.11240677 0.036050811
-0.045281094 0.035747685 0.044655822
-0.060065728 0.06536743 0.032511827
-0.082503848 0.11132386 0.040023804
-0.053596735 0.069365375 0.038886722
-0.071210735 0.079185024 0.043962494
-0.082888015 0.10965299 0.043470703
-0.059517287 0.073006146 0.039914522
-0.078397885 0.10588484 0.034143366
-0.050944954 0.071317896 0.039705276
-0.064366721 0.069068432 0.034897272
-0.067477018 0.071371585 0.036915138
-0.075824752 0.066960767 0.022981403
-0.036858778 0.039211668 0.047991402
-0.031397205 0.035030182 0.047506083
-0.034021396 0.03515695 0.049588371
-0.031145845 0.035421278 0.047428913
-0.033018041 0.036743257 0.048509698
-0.030884769 0.034122109 0.048595138
-0.02916288 0.035575517 0.049781207
-0.029477144 0.035063148 0.049962979
-0.027451504 0.035457395 0.049584098
-0.02637157 0.03526574 0.049872365
-0.026033299 0.034406975 0.050950151
-0.024740223 0.034391869 0.049500331
-0.024400832 0.034511607 0.051537063
-0.022971895 0.035067957 0.051510427
-0.021996079 0.035752364 0.051212143
-0.020499883 0.034776866 0.051131628
-0.018155089 0.036792502 0.051870953
-0.018277744 0.034790635 0.051581547
-0.01717858 0.035916548 0.050793801
-0.034987189 0.14904964 -0.0030129887
-0.045738548 0.14903083 -0.0020673564
-0.06828548 0.14810005 -0.038730375
-0.048895728 0.14463212 -0.0010340676
-0.061279446 0.1675923 -0.056604974
-0.018449478 0.16058587 -0.012645591
-0.06999971 0.15088189 -0.041982636
-0.025122918 0.15509164 -0.0091125686
-0.067854613 0.14239569 -0.0092874737
-0.067897707 0.1548021 -0.053474322
-0.044261038 0.15217307 -0.0052721775
-0.063849375 0.14631705 -0.027012601
-0.037292697 0.1512754 -0.0049788719
-0.024230404 0.15576823 -0.011104254
-0.061992917 0.14642245 -0.016621063
-0.027725011 0.15926293 -0.014409587
-0.062340047 0.15197553 -0.026766142
-0.0097181555 0.17603382 -0.028775085
-0.065374732 0.14406794 -0.010447654
-0.064123161 0.15540966 -0.046121202
-0.055731274 0.13773918 0.00023363042
-0.029916665 0.15352248 -0.0053037
-0.063467331 0.14498164 -0.0093131689
-0.06453836 0.14823675 -0.027516183
-0.051219545 0.14020398 0.00047087623
-0.025645422 0.15914871 -0.011678433
-0.062270548 0.13887234 -0.0079428097
-0.029888127 0.15629733 -0.0057588988
-0.016410381 0.1592263 -0.010205138
-0.04952237 0.14650558 -0.0018459605
-0.063916214 0.14311573 -0.0096089942
-0.0083960984 0.16986956 -0.026404684
-0.065663189 0.14481863 -0.014216752
-0.044765312 0.15201804 -0.0068322942
-0.068112589 0.14757632 -0.029927915
-0.030170502 0.15278755 -0.0054428373
-0.024638047 0.15909633 -0.012359133
-0.018026054 0.16028371 -0.010666187
-0.05279965 0.14553437 -0.00053122919
-0.066436827 0.15059771 -0.03431192
-0.062820487 0.16160488 -0.056943145
-0.066656478 0.14037196 -0.0079642311
-0.064945348 0.14671348 -0.018531088
-0.070148632 0.14297532 -0.01449387
-0.010803089 0.16487789 -0.017913673
-0.061360575 0.16765414 -0.059698947
-0.067318872 0.1455953 -0.015609522
-0.064813755 0.15110543 -0.03081888
-0.04682694 0.14618056 0.0033221429
-0.065177307 0.14344054 -0.013898245
-0.065588728 0.15478711 -0.038207997
-0.01399688 0.16268395 -0.015615102
-0.014733221 0.16087084 -0.013298961
-0.063952111 0.16035242 -0.055305365
-0.066893913 0.15318438 -0.044304345
-0.066041112 0.14302614 -0.012771477
-0.046717074 0.15091671 -0.0059222076
-0.032435223 0.15214401 -0.0060070734
-0.064347804 0.15622663 -0.049400371
-0.064296894 0.1521685 -0.037667688
-0.067408592 0.15182242 -0.047647655
-0.015123932 0.16266735 -0.014833265
-0.046842784 0.14725594 -0.0022828288
-0.039505385 0.15063332 -0.0062004123
-0.066603206 0.1448679 -0.017756524
-0.069114789 0.15136933 -0.040859833
-0.0421126 0.15120944 -0.0061664358
-0.024693269 0.16345586 -0.012713002
-0.031601291 0.15163784 -0.0073638083
-0.070622124 0.14442825 -0.018792246
-0.03393244 0.15498199 -0.0070319753
-0.068523616 0.14833201 -0.035563279
-0.038569063 0.15470985 -0.0081371302
-0.06721545 0.1520136 -0.048808374
-0.066510603 0.15444008 -0.045148484
-0.044332683 0.14786655 0.00089435687
-0.0095839854 0.16680411 -0.023288405
-0.062602542 0.15095538 -0.030489216
-0.067564242 0.15119047 -0.038352482
-0.036415782 0.15665771 -0.010638039
-0.049791552 0.14629608 -0.0012307351
-0.01387221 0.16513382 -0.017699003
-0.018282292 0.16435698 -0.017062392
-0.040700801 0.14829104 -0.0029497431
-0.022727191 0.15646371 -0.01043164
-0.039658919 0.14943667 -0.00090075983
-0.040988751 0.15175378 -0.0081947399
-0.068364017 0.15025166 -0.036561169
-0.023963012 0.15762393 -0.0086970348
-0.022433765 0.15981688 -0.014582496
-0.066517197 0.14399502 -0.015056108
-0.065330721 0.15142037 -0.046943221
-0.06801454 0.15017933 -0.040787764
-0.030081155 0.15496984 -0.0088460064
-0.050849475 0.14114404 0.0025926349
-0.034482274 0.15242542 -0.0076495176
-0.06041903 0.16474043 -0.057708964
-0.013630596 0.16911586 -0.022880545
-0.04310853 0.14745058 -0.0064637642
-0.020466693 0.15768881 -0.0097061126
-0.038807612 0.15258129 -0.0068271649
-0.032102421 0.15435661 -0.0045319237
-0.045875091 0.14494325 -0.0010518867
-0.064141728 0.1555514 -0.049181383
-0.038093701 0.15297399 -0.0080033103
-0.04460036 0.14714465 -0.0015234788
-0.011388654 0.16585085 -0.020502683
-0.041311868 0.15166664 -0.0059569003
-0.015774297 0.16091393 -0.014328597
-0.043693125 0.14670332 -0.0031490785
-0.022877485 0.15873495 -0.013036502
-0.050718274 0.13885529 0.0015824557
-0.049082667 0.14185846 0.0041386918
-0.01447733 0.16453864 -0.0204168
-0.054478213 0.14029993 -0.001607871
-0.039565239 0.15374647 -0.009238557
-0.062577434 0.16368526 -0.053357687
-0.065690346 0.1514409 -0.037575934
-0.064587042 0.15654755 -0.052947689
-0.066132285 0.14170015 -0.0083762305
-0.05987826 0.16934879 -0.061930053
-0.048799593 0.15036054 -0.0034920115
-0.062212732 0.16404109 -0.060401149
-0.068077654 0.15208866 -0.043580204
-0.064290829 0.1533158 -0.038010422
-0.062402315 0.16783763 -0.060788453
-0.038945906 0.15477967 -0.0079958513
-0.015609576 0.16868135 -0.020812567
-0.051623747 0.1424339 0.0045005213
-0.017738463 0.16460888 -0.017316172
-0.042499214 0.14719188 -0.0019237092
-0.014444178 0.16898994 -0.022213018
-0.010672241 0.17307276 -0.027212571
-0.034521833 0.15277392 -0.0071212822
-0.04085321 0.14939196 -0.0034933835
-0.039692037 0.15134355 -0.0061488957
-0.062706083 0.16151996 -0.058330089
-0.060908861 0.16452429 -0.059864368
-0.010831547 0.16938214 -0.025887066
-0.015196517 0.16252421 -0.017133646
-0.06974753 0.15016373 -0.044272508
-0.064059272 0.15320697 -0.036050573
-0.029192451 0.15756795 -0.010572062
-0.061186831 0.14406194 -0.0053724321
-0.071226589 0.15377437 -0.048499867
-0.018429641 0.16391146 -0.016015768
-0.066634536 0.14607301 -0.023346752
-0.064656146 0.14759383 -0.022453079
-0.069349058 0.14115828 -0.0093503678
-0.063063256 0.15026999 -0.034893118
-0.063247137 0.13984911 -0.0073824469
-0.04539204 0.14564547 0.002078539
-0.020708259 0.1608151 -0.015390816
-0.066912547 0.15081629 -0.045855876
-0.066423617 0.14424191 -0.01677121
-0.027745049 0.15722933 -0.0089721289
-0.016210284 0.16583166 -0.018747125
-0.011363717 0.16462746 -0.017183913
-0.031914808 0.15676655 -0.0092574693
-0.040402848 0.15197684 -0.005768172
-0.050656281 0.14411977 0.002672547
-0.046467904 0.14728577 -0.00080395327
-0.035236135 0.15722665 -0.011709663
-0.047318816 0.14875233 -0.005377762
-0.047389559 0.1471331 -0.0034168307
-0.015754318 0.16767542 -0.019415852
-0.019900477 0.16276343 -0.015657904
-0.068302795 0.14647141 -0.026378669
-0.069764823 0.1408221 -0.01071609
-0.043864898 0.14783596 -0.0020729043
-0.064680904 0.14850105 -0.023039792
-0.064942047 0.15925309 -0.058494627
-0.06454818 0.14096995 -0.0071103666
-0.069815323 0.14727025 -0.021687942
-0.054560956 0.13655725 -0.0048407605
-0.013420074 0.16875951 -0.023634627
-0.028169932 0.15705377 -0.011433629
-0.065151341 0.1438742 -0.018485207
-0.017992394 0.16136919 -0.012290675
-0.063275039 0.14111334 -0.0078368625
-0.014487223 0.16010863 -0.012394006
-0.066749349 0.14558797 -0.017601881
-0.025245937 0.15961024 -0.012510989
-0.012959796 0.17055187 -0.026162844
-0.037232075 0.15123124 -0.0025769935
-0.064017646 0.16366814 -0.060037103
-0.010974757 0.16784874 -0.023932861
-0.041522171 0.15305403 -0.005766619
-0.067204796 0.14522775 -0.021609573
-0.019362701 0.16412365 -0.016782979
-0.06253916 0.15303393 -0.031995341
-0.062380619 0.14910831 -0.024924938
-0.010119692 0.17190173 -0.027126158
-0.037333675 0.15323386 -0.0098563815
-0.070237219 0.15248677 -0.049579516
-0.03559377 0.15484212 -0.0090699662
-0.033553522 0.15579391 -0.0095285187
-0.010255779 0.16873915 -0.023908656
-0.032244399 0.15950638 -0.011898489
-0.067381591 0.14843592 -0.033025965
-0.061744634 0.16695622 -0.061546125
-0.029600581 0.15707313 -0.0071380381
-0.052209359 0.1404269 -0.0017307798
-0.062853143 0.14239752 -0.0056050471
-0.066199049 0.14805733 -0.019001422
-0.030701404 0.15863726 -0.012043483
-0.064353764 0.14777102 -0.023601919
-0.015347564 0.1639653 -0.017697457
-0.069734715 0.14977646 -0.037151676
-0.024993069 0.15968053 -0.011764611
-0.066168092 0.15093349 -0.035874728
-0.06511049 0.15783639 -0.053273216
-0.010845317 0.16339138 -0.020069413
-0.072301067 0.14474884 -0.018218806
-0.071876839 0.14552788 -0.02116807
-0.052473575 0.14014064 -0.00028654101
-0.026308989 0.15719472 -0.0080868853
-0.0097354129 0.17334558 -0.025597954
-0.023143707 0.16221471 -0.012741983
-0.037186299 0.15099619 -0.0063777454
-0.069478385 0.14952271 -0.040116716
-0.043775745 0.14839673 -0.0054009575
-0.068658009 0.14692849 -0.028603448
-0.021242451 0.15901676 -0.010247
-0.0099065369 0.16986765 -0.026294544
-0.065275311 0.15622774 -0.042952757
-0.017299937 0.16136979 -0.016379019
-0.061484318 0.16861896 -0.061449505
-0.022901049 0.15803339 -0.0067736823
-0.068062097 0.14997488 -0.039986532
-0.06579864 0.15490592 -0.039624859
-0.039542735 0.14877371 0.00049717946
-0.062969379 0.14875606 -0.026975555
-0.064878732 0.15670949 -0.043973565
-0.044597756 0.1482656 -0.0033727069
-0.023516852 0.16154319 -0.012222087
-0.073576093 0.14996989 -0.040943459
-0.018890794 0.16050175 -0.012425841
-0.067331836 0.15017536 -0.04480299
-0.036787305 0.15246667 -0.005977517
-0.065637976 0.14491476 -0.014129947
-0.06456463 0.14516585 -0.015922423
-0.018137578 0.16164134 -0.016424743
-0.043346357 0.14849477 -0.0036354652
-0.020318117 0.15881668 -0.0090129888
-0.064155109 0.15339495 -0.045404423
-0.064632602 0.14414762 -0.0097179385
-0.031988535 0.15418813 -0.008739328
-0.043241154 0.14788023 -0.0004009406
-0.025645731 0.1574623 -0.0078702504
-0.019146338 0.1649465 -0.018093463
-0.061599977 0.15142441 -0.029282341
-0.026184006 0.16260317 -0.014553346
-0.061360918 0.16645528 -0.059543226
-0.020847712 0.16050641 -0.01118052
-0.034828011 0.15320019 -0.0066475114
-0.010272623 0.17371291 -0.02676452
-0.067871861 0.15338321 -0.04763253
-0.066460997 0.14744203 -0.022692386
-0.066937663 0.1480957 -0.036238499
-0.029561086 0.15594971 -0.0065815607
-0.018687811 0.15864018 -0.010062643
-0.06435959 0.16307454 -0.058412984
-0.064777963 0.13942748 -0.0096991416
-0.034142721 0.15563898 -0.0070289308
-0.028944988 0.15736583 -0.01110437
-0.066242933 0.14748861 -0.028409557
-0.062975757 0.14855945 -0.020224832
-0.065047108 0.15665333 -0.051481415
-0.063689411 0.16008978 -0.053513039
-0.010930331 0.17620464 -0.028037723
-0.033746634 0.15539929 -0.011560215
-0.063208088 0.14445622 -0.0062431116
-0.06230085 0.16481012 -0.058813367
-0.065654717 0.15237884 -0.039308928
-0.028656805 0.15673976 -0.0041275537
-0.063939303 0.14836101 -0.024156578
-0.067370191 0.14553134 -0.02015773
-0.015940752 0.16079777 -0.014826485
-0.059686758 0.14503391 -0.0058883689
-0.065422408 0.15087858 -0.030217493
-0.019252615 0.16163832 -0.0172369
-0.01544308 0.16144925 -0.01480528
-0.064950794 0.15203182 -0.044126395
-0.015396401 0.16358282 -0.017544756
-0.019024858 0.16353463 -0.016808547
-0.053553175 0.13915569 -0.0012631342
-0.062598579 0.14784858 -0.025272522
-0.062951021 0.16500473 -0.061066102
-0.067345925 0.14857498 -0.03134878
-0.03960247 0.14976446 -0.0033381649
-0.048629135 0.14470509 0.0037839357
-0.062751956 0.16170007 -0.053553846
-0.025537813 0.15966561 -0.010640236
-0.071127385 0.14580233 -0.017602921
-0.065587625 0.14422946 -0.014570806
-0.0672203 0.14658985 -0.025419772
-0.063086003 0.15339741 -0.050353441
-0.043791112 0.14561403 -0.0012988611
-0.07060615 0.14283034 -0.010142888
-0.011895271 0.16755198 -0.019871442
-0.068185039 0.14817642 -0.037386693
-0.066515461 0.14478433 -0.023276063
-0.062798291 0.14617698 -0.018241132
-0.02423081 0.15964131 -0.012586091
-0.052327406 0.14144614 -0.00116796
-0.025404874 0.16245121 -0.013043389
-0.02646902 0.16090363 -0.013165796
-0.064433224 0.14571932 -0.019276597
-0.051234394 0.14829113 -0.00050074549
-0.066880383 0.15027869 -0.040626612
-0.064396992 0.15803799 -0.050895635
-0.049437005 0.1444924 -0.00063395
-0.0197006 0.1635991 -0.014184413
-0.027859204 0.1554213 -0.0025656808
-0.027506342 0.15526141 -0.0090287486
-0.041082423 0.15051807 -0.0031226133
-0.015065041 0.1650908 -0.018537465
-0.067905895 0.15333585 -0.043300103
-0.028372539 0.15445003 -0.0031569542
-0.073633157 0.1443845 -0.013800167
-0.029091025 0.15742564 -0.010501985
-0.067183316 0.15584829 -0.050587621
-0.027239967 0.15881547 -0.012087812
-0.049657356 0.14435709 0.0013927704
-0.018787377 0.16240634 -0.010717108
-0.064774714 0.15966225 -0.051103745
-0.06436152 0.14912297 -0.022121549
-0.028130384 0.15430102 -0.0033632067
-0.0662883 0.15238817 -0.037637394
-0.066714481 0.14984556 -0.041819114
-0.067523532 0.15268871 -0.044499949
-0.061231047 0.14434308 -0.0060645202
-0.025215957 0.15927346 -0.012639019
-0.0617585 0.16358054 -0.054977279
-0.06802994 0.14431079 -0.02580571
-0.012083886 0.16693814 -0.018752757
-0.06700749 0.15460059 -0.052104373
-0.0099079013 0.17591822 -0.029460194
-0.034075331 0.15124978 -0.0054640858
-0.029615151 0.15753216 -0.010385736
-0.062978126 0.15347767 -0.03200784
-0.065716118 0.15162212 -0.03632335
-0.066222191 0.14731137 -0.029372012
-0.065651998 0.1542048 -0.041089151
-0.068553261 0.14237028 -0.013002649
-0.066111162 0.14245795 -0.0090352744
-0.070438229 0.15111788 -0.038316358
-0.071737297 0.14947005 -0.045359854
-0.063299395 0.14783034 -0.014966514
-0.064848006 0.14746179 -0.022792857
-0.010888778 0.17100962 -0.028782576
-0.062250249 0.14596234 -0.0060761464
-0.068472095 0.14860126 -0.042384624
-0.065872282 0.15005207 -0.033194926
-0.046061169 0.1467355 4.4986606e-005
-0.042578392 0.1511147 -0.0052765049
-0.020136584 0.15981248 -0.014343021
-0.010539986 0.16748388 -0.025663378
-0.064346157 0.14151567 -0.0090042204
-0.043276526 0.14917494 0.003781972
-0.067610547 0.15207054 -0.041635547
-0.068139374 0.15260127 -0.050884467
-0.019797876 0.15751998 -0.011287244
-0.020440985 0.15928102 -0.012916298
-0.013584229 0.16616145 -0.018700875
-0.067577265 0.14566341 -0.017502075
-0.024766352 0.15747392 -0.010027872
-0.011550442 0.17015228 -0.021677004
-0.039805524 0.15249471 -0.0048511517
-0.062418759 0.14695959 -0.02618208
-0.024446227 0.16102666 -0.0145622
-0.048936483 0.13921484 0.00029709202
-0.024700828 0.16347016 -0.015189876
-0.070575796 0.14329858 -0.014624576
-0.050107282 0.14461501 -0.0028677969
-0.045509275 0.1508017 -0.0062980466
-0.05435824 0.13969019 -0.0026364033
-0.042103678 0.14955239 -0.0038593402
-0.069248609 0.14816882 -0.028298881
-0.041765068 0.14890407 -0.0036240001
-0.051618312 0.13717645 0.0007252043
-0.071371675 0.14604793 -0.02328993
-0.035502277 0.15068832 -0.0031582429
-0.063887477 0.14981648 -0.026932275
-0.048606481 0.14801744 -0.0033834802
-0.0096638687 0.17247143 -0.029197512
-0.06834133 0.14197753 -0.0086687226
-0.072965831 0.14420168 -0.016483512
-0.065177836 0.1506854 -0.03670064
-0.031648882 0.15611121 -0.0096360613
-0.066171169 0.15313488 -0.052457564
